# .PCD v0.7 - Point Cloud Data file format
VERSION 0.7
FIELDS x y z
SIZE 4 4 4
TYPE F F F
COUNT 1 1 1
WIDTH 1883
HEIGHT 1
VIEWPOINT 0 0 0 1 0 0 0
POINTS 1883
DATA ascii
10.902 -14.974 19.774
14.91 13.4 19.695999
12.243 -11.155 15.161
-28.058001 0.36399999 6.677
27.614 2.905 17.875
22.391001 -9.2119999 21.514999
5.513 13.936 10.231
-28.975 9.8249998 10.761
-7.0209999 -0.105 44.756001
17.368 -9.3570004 16.91
5.322 15.445 15.04
19.214001 -11.382 22.107
-1.697 -12.719 12.794
10.061 -11.878 14.425
18.035999 -1.267 3.9130001
-26.893999 -9.3299999 10.651
-28.132999 3.441 7.1739998
1.694 11.961 9.9359999
-26.327 8.6990004 8.9980001
23.089001 -4.8660002 11.829
21.025 -9.5030003 17.066
-2.816 3.277 0.30000001
3.1159999 -13.157 13.861
-6.882 1.864 45.110001
19.556 -8.9350004 24.146999
-9.4860001 1.499 0
25.938999 -3.2880001 25.944
28.552 0.092 26.85
-5.7290001 -1.28 35.59
-20.827999 11.747 8.9700003
17.785 12.441 21.855
-26.011 8.1309996 8.5439997
13.819 0.028999999 0
-26.332001 -1.785 8.7869997
4.3740001 -15.401 14.317
18.695 12.158 22.296
30.08 1.1289999 25.393
16.976 -13.03 21.820999
-26.440001 -8.6520004 4.6950002
-12.836 -1.976 0
4.8119998 12.329 11.405
8.9469995 12.866 16.658001
9.6529999 12.28 14.551
-0.15700001 11.111 8.6300001
14.061 -8.9750004 37.661999
-7.6479998 -7.75 34.999001
-7.3439999 8.382 35.259998
29.559 -2.434 25.400999
27.066 4.9169998 23.131001
8.743 10.099 5.0900002
-7.152 2.8759999 0.30000001
5.8099999 10.552 8.6140003
24.334 -7.9949999 21.660999
-1.946 -2.6530001 45.042999
-27.146 -9.4239998 10.718
14.513 13.606 20.728001
-5.723 0.45300001 35.370998
-5.7030001 0.45300001 35.370998
9.9650002 12.724 17.492001
12.178 14.403 20.093
14.039 -8.6820002 37.418999
-3.7379999 -8.0200005 29.016001
14.745 10.757 16.334999
-0.336 10.922 8.5500002
23.764999 7.8720002 19.916
-28.749001 9.3909998 9.0710001
30.277 0.773 25.458
-28.07 -0.55599999 6.9990001
-18.125999 -1.969 0.30000001
7.684 -13.004 15.821
-4.6929998 -12.608 7.651
21.836 -0.74800003 7.059
-27.434 -5.533 5.3590002
-26.518 -1.733 9.1520004
26.593 -5.9759998 24.511999
-19.533001 -9.427 4.5019999
0.463 10.795 3.9130001
10.381 -12.23 15.201
7.5139999 -11.761 11.329
12.665 9.7309999 40.078999
13.266 -8.8929996 37.113998
19.344 8.9639997 23.987
15.048 -13.668 21.034
20.614 -6.7379999 17.624001
-28.729 -0.15899999 12.007
-28.190001 -3.7360001 7.039
22.888 5.75 19.108999
-9.2819996 -13.17 9.8430004
-28.497999 9.7519999 8.8780003
7.993 11.715 7.059
-8.0780001 -8.4250002 35.424
-5.6890001 -13.65 10.289
-8.434 -8.3640003 37.841
6.4699998 15.058 13.843
-5.8270001 2.931 47.860001
-27.159 9.2119999 10.696
4.8990002 -12.775 7.651
12.577 -9.5319996 40.18
5.1020002 15.486 13.032
-2.8559999 12.508 12.485
-5.724 4.2810001 35.408001
22.003 10.07 23.247999
5.0549998 -8.0240002 0.78200001
-0.74000001 11.238 8.7460003
17.072001 12.641 23.4
24.396 3.3010001 18.747
-29.169001 9.2950001 9.309
22.737 8.7550001 19.898001
11.222 14.467 17.471001
-27.847 1.765 6.1230001
10.262 -12.254 15.147
26.737 -5.6620002 22.319
3.2620001 12.12 10.475
0.41 -11.206 8.6730003
-28.863001 -5.3850002 9.099
9.9090004 13.09 21.238001
23.409 4.5419998 18.493
24.516001 7.6989999 20.573999
-28.454 8.6020002 8.1140003
19.773001 -8.5170002 20.124001
-4.0960002 -14.153 12.402
22.934999 5.8899999 19.92
6.2620001 11.199 9.5299997
2.767 13.149 13.769
-28.789 9.9709997 9.0979996
7.9289999 -13.539 10.43
16.525 -0.185 2.2119999
5.816 -12.847 13.517
5.4970002 12.446 7.256
11.691 -5.2509999 1.564
-27.535999 -1.552 10.969
-27.198999 -1.688 10.869
6.7639999 14.313 11.829
7.0019999 11.961 11.443
-28.495001 0.91299999 12.069
-21.018 -11.607 8.9630003
-29.150999 9.448 9.3079996
7.1220002 -0.773 0
-26.950001 8.5810003 10.064
28.202 -0.852 15.97
-28.659 -9.908 9.0909996
8.4519997 12.061 7.849
-11.047 -13.203 9.8050003
1.974 -14.771 11.866
-11.896 -11.14 11.145
24.139999 -7.2069998 18.482
-28.273001 1.785 7.572
-27.282 -10.757 8.9069996
5.3540001 -13.227 15.035
24.361 7.473 18.691999
10.23 -12.309 15.338
19.163 -11.029 18.077
-25.541 0.63499999 12.836
25.055 4.244 25.490999
16.683001 9.823 16.834
30.483 0.17299999 25.634001
-28.266001 4.9120002 7.552
-28.207001 -1.067 10.849
24.768 3.7360001 19.143999
24.466999 -7.7909999 25.424
30.497999 0.447 25.663
-5.3740001 -2.688 44.722
-17.872 5.2670002 13.755
23.028 -8.8219995 23.354
27.514999 4.4790001 24.343
13.807 8.6309996 37.291
-28.653 10.466 9.1759996
3.6259999 11.977 10.22
-0.97899997 -0.105 44.756001
16.381001 -11.197 13.033
-28.584 10.384 10.777
16.872999 -0.87699997 2.7379999
11.502 -7.6680002 14.879
10.01 -13.985 13.234
27.528999 4.0050001 20.808001
27.968 -0.050999999 14.993
-1.118 1.864 45.110001
13.311 11.974 22.233
16.091999 -10.664 19.648001
29.978001 1.204 27.25
29.861 0.39300001 20.948
22.684999 5.0320001 18.245001
-5.7270002 3.819 35.513
-5.7069998 3.819 35.513
20.655001 6.8010001 17.653
13.952 14.054 22.419001
-27.795 -3.766 5.9910002
10.183 11.566 14.398
21.224001 -9.9230003 19.898001
-2.1730001 2.931 47.860001
-28.013 4.7529998 6.559
8.5360003 -14.985 16.459999
-7.6859999 7.362 34.654999
30.738001 0.25600001 25.754
27.931999 0.699 25.013
-26.427999 9.1339998 9.9940004
26.114 5.9759998 26.111
-26.796 -1.762 9.8249998
6.6300001 -10.953 9.599
17.004 -9.658 16.929001
13.138 -9.2139997 37.191002
-28.207001 -3.056 7.085
-28.101 4.1329999 6.7930002
24.974001 -7.3249998 25.576
7.559 -11.965 11.778
14.942 10.674 16.393
19.934 9.9469995 15.854
-8.1540003 -7.8909998 35.172001
25.103001 -3.4089999 19.431999
23.063999 -9.1219997 23.441999
11.565 -12.482 21.57
-26.898001 -9.1490002 10.507
9.0290003 10.978 6.467
21.177 -10.045 20.707001
20.948999 5.119 9.4350004
9.2869997 -11.411 7.256
-29.037001 9.4289999 9.1260004
11.355 12.335 17.518999
-22.830999 7.3969998 1.368
10.548 -15.091 19.547001
9.8360004 -12.338 14.958
18.341999 -10.306 13.838
15.447 -5.079 4.3049998
11.274 -12.284 10.032
13.197 8.4560003 36.612999
5.98 -10.358 8.6429996
-28.023001 10.99 9.1800003
-27.09 1.929 10.601
-28.048 4.2280002 6.9400001
6.2410002 -1.182 14.846
8.3369999 -15.147 16.476999
-28.207001 -1.008 10.915
-5.7049999 -1.414 35.464001
13.444 9.6210003 37.446999
12.882 -9.2379999 37.137001
-28.228001 -0.97100002 7.1430001
-27.226 -9.3009996 10.722
26.979 5.4320002 22.697001
-11.026 -11.641 7.059
-28.042 -0.44100001 6.6339998
13.677 9.4829998 37.518002
26.534 -0.447 19.386
-7.3460002 2.3340001 21.716
-22.853001 11.682 9.1079998
26.605 -5.8179998 22.422001
-27.084 -8.7629995 10.582
-6.494 2.4530001 45.265999
8.4949999 -1.374 24.364
2.253 -15.305 12.263
6.5 -13.116 8.8389997
-27.681999 -4.0489998 5.9780002
-27.843 -0.5 6.1139998
-27.711 5.698 6.0510001
-10.409 -13.141 11.421
11.77 -10.954 14.959
26.778999 -2.2550001 24.974001
21.634001 -0.74400002 6.862
15.789 13.064 20.302
26.254 -6.0149999 26.040001
-5.3460002 2.76 44.879002
-25.464001 -0.331 12.879
28.656 1.794 18.886999
5.6420002 -14.885 13.044
0.66500002 11.954 9.9259996
-28.701 -0.152 10.8
24.58 -4.6929998 23.517
19.201 -9.0539999 22.584
-1.219 8.25 32.469002
-7.4819999 -0.354 47.700001
-5.7350001 -0.88200003 35.837002
24.891001 -4.4130001 25.593
-27.021999 -9.2279997 10.644
16.752001 -5.1929998 5.4829998
16.275 -3.102 3.5209999
-26.421 -1.7309999 9.1260004
15.727 10.865 19.915001
-27.027 9.0900002 10.597
21.313 8.2089996 14.24
-25.931999 7.3839998 2.779
13.542 -11.029 9.6339998
16.872999 -1.6289999 3.1289999
-25.422001 -0.70099998 0.88700002
13.418 -9.2639999 37.254002
-28.737 0.32300001 11.989
-28.167999 2.7379999 6.9790001
13.165 -9.5790005 37.271999
-12.294 -0.27200001 0
17.1 -10.187 20.212
13.165 8.5439997 36.605
-15.836 12.532 9.3610001
25.139 -7.3410001 22.877001
20.004999 7.9299998 17.952
8.2559996 -15.398 16.466
18.805 0.70700002 4.2839999
16.433001 -9.948 16.761
25.583 2.346 19.202
27.346001 -1.494 24.712
28.403999 0.46399999 16.099001
-27.729 -1.154 6.0960002
23.052999 5.7290001 19.697001
-26.18 8.5050001 8.7370005
12.897 7.217 4.3049998
17.591999 9.9350004 20.493
-1.743 -14.563 12.872
-25.624001 -8.2709999 3.536
23.410999 5.2309999 19.122
29.311001 -1.3710001 20.504
9.165 9.3219995 4.3049998
3.2639999 -14.661 11.629
25.266001 -5.8709998 17.921
0.28299999 -12.484 11.337
-28.482 -0.41299999 11.012
13.41 -2.444 0.78200001
-8.6809998 -8.1000004 37.817001
-2.1159999 12.454 6.862
28.34 3.0840001 21.514999
25.045 -3.454 19.367001
-25.245001 -6.2950001 1.031
-28.635 -9.5500002 9
25.737 5.3569999 17.971001
9.1619997 -12.314 14.104
-0.81599998 -14.883 11.511
26.517 -5.5370002 23.205
-27.75 -5.0009999 5.8769999
-2.654 2.76 44.879002
-9.2889996 13.47 10.06
-8.3640003 -8.3760004 37.959
19.691 -7.2059999 17.334
-28.409 -0.63099998 11.006
-25.785 8.0030003 8.5039997
27.471001 -1.619 26.531
19.429001 -8.6829996 19.575001
-28.363001 2.102 7.5279999
20.025 2.888 6.664
-15.922 -1.802 0.30000001
20.687 -10.449 21.716999
26.837 -5.256 24.441999
5.6059999 11.313 5.4829998
-5.7309999 -1.587 35.667999
-5.711 -1.587 35.667999
27.912001 -0.029999999 21.775999
24.797001 -0.222 10.051
25.150999 4.0180001 22.701
-5.48 3.016 47.953999
2.05 11.772 9.5469999
-5.4990001 0.054000001 48
21.481001 9.6120005 19.089001
27.152 -4.9429998 24.594999
-26.427999 -9.698 6.3130002
-22.042999 2 0
-6.8540001 -0.98400003 44.722
-8.3999996 -8.158 35.443001
24.263 3.7179999 18.722
22.065001 -7.0209999 24.837
15.85 12.907 18.684
12.717 -5.7220001 2.7379999
0.94599998 11.189 4.5019999
26.469 4.638 18.4
-25.851999 7.4720001 2.7709999
12.664 12.023 18.632999
9.5369997 15.322 20.9
-7.302 1.16 45.299999
26.631001 -1.376 19.724001
-18.209 10.325 10.711
-24.01 -11.56 9.1470003
22.444 -6.8049998 25.014
23.938 -8.1700001 23.688
12.053 -11.292 15.137
7.5419998 -11.338 6.27
-27.653 -1.545 10.815
24.617001 -6.2620001 17.066
0.699 12.067 10.186
12.616 -9.823 39.943001
8.2559996 -11.171 11.699
0.26300001 -10.79 3.9130001
8.1800003 -14.549 13.636
28.202 0.852 15.97
-15.455 10.715 10.898
6.2470002 11.722 10.518
10.441 -14.96 21.427
-1.506 2.4530001 45.265999
3.664 12.622 11.906
-21.158001 2 0
11.208 14.981 21.489
-5.7080002 -0.033 35.567001
-28.056999 -2.9719999 6.9650002
27.511999 1.29 24.997999
20.051001 10.68 19.493
5.0120001 10.798 8.6219997
-29.073 9.6759996 10.71
-29.075001 -9.4370003 10.767
17.625999 -12.471 23.489
-26.851999 9.8479996 6.8239999
28.747 -0.052999999 16.816
24.931 7.4640002 21.867001
24.969 -6.7179999 18.165001
6.677 -4.9520001 20.379999
22.399 -9.3070002 23.165001
3.7679999 -8.6090002 1.173
8.8649998 13.11 19.818001
-7.6440001 7.3540001 34.431
10.835 12.674 20.26
24.686001 -7.9289999 24.132999
12.372 14.165 17.875
24.533001 -7.5700002 25.618
-5.723 -4.086 35.368999
-5.7030001 -4.086 35.368999
23.030001 5.1680002 18.49
-5.7280002 0.12 35.566002
14.214 -11.132 16.764999
-5.71 3.8069999 35.631001
22.99 -2.256 9.2360001
-6.645 -2.2920001 47.700001
-28.392 1.846 7.612
-0.131 10.62 8.5
-7.6430001 -1.403 33.073002
20.35 7.6500001 17.982
25.791 -3.4489999 25.865999
-7.3109999 1.039 47.830002
28.281 3.7460001 26.568001
14.784 -11.331 20.587
-2.52 3.016 47.953999
6.0840001 7.079 0
19.312 9.8789997 14.442
-7.7540002 4.2800002 25.843
-28.112 0.41499999 7.118
-27.257 11.227 10.566
-26.007 8.46 8.6719999
20.580999 8.1110001 22.329
-10.721 1.8329999 0
13.069 -11.426 15.919
-6.4510002 -13.721 11.993
19.349001 -11.228 20.504
7.073 -10.807 10.042
-1.405 -14.526 11.206
15.273 -11.004 19.089001
-7.342 1.926 21.561001
23.608999 -5.7519999 25.348
18.556 0.189 3.9119999
-27.061001 8.8830004 10.549
10.359 11.445 14.513
-8.7060003 -7.2870002 35.397999
-27.846001 1.73 6.401
20.827 -7.9369998 24.363001
9.1140003 -13.068 20.24
8.125 13.359 19.125
28.221001 3.802 26.591
-28.697001 -0.56999999 11.954
-7.914 2.802 0
28.068001 -0.153 22.969999
14.351 10.768 16.017
-28.927 -9.5970001 9.1059999
16.208 13.332 21.443001
9.7550001 -15.275 20.990999
-29.163 9.3249998 10.647
-5.7360001 1.105 35.849998
27.360001 4.9829998 22.589001
-27.159 -1.799 10.728
1.721 1.098 0
-27.938999 0.315 6.645
-0.51800001 -0.354 47.700001
7.5289998 -13.082 9.2360001
12.553 9.7880001 40.007
13.158 -9.415 37.229
16.875 -0.111 2.493
30.461 0.59299999 25.652
-27.833 3.8069999 6.0900002
18.674 -11.688 21.945
-16.284 9.5480003 4.2069998
26.172001 0.87099999 12.23
7.8179998 10.433 5.0900002
2.6559999 -14.792 12
26.570999 -5.8569999 22.443001
21.334999 -10.201 22.916
-8.2200003 -7.789 35.165001
-7.0409999 -1.428 47.953999
0.60500002 -14.642 11.502
1.9400001 -14.913 11.97
1.202 -12.285 10.707
6.947 2.809 23.813
12.708 -14.554 21.898001
21.284 2.2650001 7.454
15.701 -11.958 14.039
6.336 -12.665 13.133
-4.9549999 2.9389999 44.905998
-7.0830002 1.323 45.042999
7.9169998 14.96 15.45
5.2179999 13.314 14.993
-6.7350001 13.665 10.226
6.3499999 -0.498 16.235001
17.882999 -9.7180004 19.952999
0.23899999 14.423 10.829
1.012 -13.38 8.2449999
-28.208 4.7519999 7.0890002
-24.993999 -4.9499998 0
27.115 -0.105 19.610001
14.06 8.5010004 37.422001
20.073 -10.691 19.695999
12.822 14.077 18.482
27.450001 -1.151 23.044001
5.6789999 -15.336 13.107
-26.457001 -8.6520004 9.052
19.843 -7.4710002 17.434
1.232 -13.38 8.2449999
20.444 7.289 17.721001
17.052999 10.286 23.261
13.15 -9.3269997 40.235001
-5.5809999 -2.9649999 47.953999
0.60699999 -10.902 8.533
-27.528 -10.843 9.0340004
24.547001 7.7080002 20.848
-7.6929998 -7.5640001 34.872002
-11.789 12.892 9.5530005
7.3579998 -1.75 22.671
15.615 -10.884 19.504
13.333 -11.996 22.263
19.24 9.6750002 13.838
19.288 -8.9969997 23.42
12.97 -8.9689999 36.985001
28.569 -0.67000002 16.672001
28.919001 -0.37099999 17.389999
25.160999 -7.329 23.049
21.68 -8.0790005 14.643
24.320999 3.3169999 18.722
-7.0910001 0.54500002 44.952
15.358 -11.256 22.898001
-1.335 11.388 8.9919996
5.276 -13.626 9.4350004
13.648 -9.5279999 37.568001
30.787001 0.264 25.813999
-7.381 -0.114 45.062
13.339 9.3620005 40.193001
-10.162 -8.0229998 0.977
18.789 -8.9759998 11.829
15.001 11.525 12.03
18.544001 8.7410002 17.318001
5.6269999 -14.81 12.94
2.2939999 3.043 0.30000001
-5.7309999 -3.1099999 35.668999
19.349001 -7.4369998 17.232
-5.711 -3.1099999 35.668999
14.746 13.421 19.089001
-27.771999 -3.1830001 6.2059999
11.052 11.24 14.748
7.256 11.588 10.846
7.0440001 12.222 7.454
-4.1139998 -14.232 10.723
-29.056999 -9.2349997 9.1269999
-3.0450001 2.9389999 44.905998
-28.171 3.4219999 7.2820001
12.223 -13.25 13.234
1.061 13.571 8.6409998
25.226 6.6209998 18.754999
-6.921 1.8329999 0
16.613001 -9.7519999 16.687
-8.3629999 -7.592 35.16
1.284 13.571 8.6409998
18.580999 9.5089998 23.837999
-0.69800001 1.16 45.299999
28.292999 0.155 15.716
4.5619998 -12.372 6.862
-26.875999 1.7309999 10.682
16.708 -8.6479998 9.0380001
3.4779999 -13.37 8.4429998
4.8779998 -0.030999999 0.30000001
-8.5810003 8.198 37.902
-8.21 -7.7010002 35.157001
-6.5029998 1.689 44.722
-20.106001 1.599 0
-2.4949999 14.512 11.035
-7.921 -8.5150003 35.438999
30.306 -0.44299999 27.323
26.400999 5.6160002 26.209
-27.16 7.2909999 4.7119999
-7.7059999 8.3559999 38.227001
9.4379997 13.003 20.243
13.035 9.6000004 40.140999
-1.355 -2.2920001 47.700001
-26.929001 -1.8890001 9.9989996
-4.77 -9.3280001 2.346
21.556 5.0240002 10.032
-15.868 -9.0059996 3.227
-27.431999 -11.072 10.722
16.889999 -10.397 23.280001
9.5889997 15.026 18.231001
13.472 12.365 12.23
2.993 -12.026 10.212
-2.4189999 -2.9649999 47.953999
29.745001 -2.3169999 25.608999
-27.681999 -1.777 5.9780002
19.153999 9.1920004 24.027
-8.3620005 7.3280001 35.146999
-28.288 1.816 7.6170001
12.627 11.87 17.271999
-0.57599998 2.642 0.30000001
12.543 9.6440001 40.137001
-28.131001 -0.96799999 6.8769999
-5.8909998 -2.3540001 44.722
10.626 12.063 15.049
20.597 10.532 22.525
-7.0219998 0.211 44.787998
10.469 14.936 19.462999
23.233 8.9890003 23.492001
-24.062 -0.331 8.5030003
-0.903 12.821 12.928
-27.103001 -10.973 9.0200005
-0.68900001 1.039 47.830002
-28.419001 1.051 10.781
3.9100001 11.169 8.7720003
-8.2410002 8.3249998 35.458
19.011 -1.863 5.0900002
-27.655001 2.819 5.908
3.8069999 11.901 10.091
22.693001 -6.3270001 21.271
7.224 14.943 14.643
16.448999 12.574 18.280001
10.665 15.218 19.861
11.685 6.1090002 2.346
21.972 6.8509998 20.440001
9.3559999 15.358 20.672001
22.438999 6.6890001 23.471001
-7.3649998 -0.93199998 45.231998
-5.7030001 -2.9059999 35.365002
26.844999 -3.589 17.066
4.2319999 15.452 14.123
-24.636 -1.14 8.6569996
-6.1789999 2.6259999 47.911999
0.33399999 8.8660002 1.173
19.318001 11.003 18.482
21.652 -10.318 23.143
-26.254999 11.127 10.692
11.122 -15.055 19.917999
-27.216 -9.382 10.721
8.5030003 15.019 16.569
-24.796 9.6309996 10.645
23.649 -4.4580002 18.591999
-8.8760004 7.3530002 37.974998
23.841 4.329 18.649
6.2670002 -2.118 15.174
18.195999 -12.418 22.107
-24.724001 5.809 0
5.1300001 12.603 12.323
-0.95899999 -1.428 47.953999
-1.8049999 -13.213 8.2449999
13.486 4.572 2.346
24.681999 -3.299 18.886
5.9320002 15.3 13.285
-26.900999 1.818 10.006
-19.861 2.1670001 0
7.2719998 11.954 11.578
-8.2200003 8.3929996 38.068001
-28.327 10.16 9.0139999
27.733 -3.7639999 20.909
22.865 -8.4639997 18.886999
-28.011 4.164 6.8379998
-0.917 1.323 45.042999
-27.371 6.631 5.2069998
-7.4499998 -0.588 47.700001
15.231 -11.832 13.033
24.440001 -7.3499999 18.517
15.099 13.364 20.504
20.728001 -8.0209999 23.719999
29.77 -1.747 25.438
-27.284 10.376 8.1049995
3.1010001 -11.779 9.6899996
1.881 11.899 9.8079996
22.99 6.428 25.190001
-28.195 3.75 7.0510001
-28.465 0.47499999 11.011
-22.671 1.6059999 0.30000001
-10.984 -9.0970001 2.7379999
5.0510001 -15.359 12.813
12.567 12.092 19.042
-28.142 -1.341 12.163
-4.3210001 -3.0539999 44.879002
26.288 -3.027 26.167
11.454 -7.8790002 14.864
-20.148001 2.575 0.30000001
27.521 -3.9920001 20.705
21.521999 9.4659996 18.482
-26.906 1.653 12.54
25.4 4.6020002 15.45
-29.024 9.1739998 9.1149998
25.648001 5.9299998 17.988001
5.586 10.284 8.507
-28.485001 0.63 10.839
7.0050001 -14.817 13.838
5.9910002 -15.3 13.333
-0.90899998 0.54500002 44.952
-0.17 -8.8430004 1.173
-21.056999 11.887 9.1630001
29.277 0.89899999 19.167999
23.691999 -4.552 18.659
-3.6789999 -3.0539999 44.879002
-24.694 1.265 8.5690002
20.156 5.586 9.0380001
26.021999 3.256 26.052999
13.593 11.796 20.295
-7.3779998 -0.45899999 45.084999
-28.478001 0.727 10.815
27.478001 2.9059999 17.471001
26.513 2.3429999 22.462999
4.415 9.3500004 2.346
13.493 9.6499996 37.662998
17.615999 9.9820004 21.73
28.195999 -0.65799999 15.758
2.527 -10.183 3.1289999
21.509001 -6.678 18.194
14.875 -4.1690001 3.1289999
-1.497 1.689 44.722
12.225 -14.312 19.089001
19.57 11.435 23.955999
13.273 8.4440002 36.875999
20.388 8.2639999 12.832
23.974001 8.4689999 23.745001
-6.9200001 -0.949 44.879002
-0.61900002 -0.114 45.062
-6.7249999 -9.9519997 3.5209999
-29.039 9.7779999 9.1960001
26.966999 -1.3660001 14.039
1.858 12.957 7.454
-8.5340004 7.7729998 35.287998
-26.702999 -9.2919998 10.542
23.551001 -1.664 9.4350004
27.448 -4.2410002 19.437
-27.493 -5.3520002 5.5050001
21.032 -10.18 21.111
-26.635 -6.7179999 3.5109999
29.129999 -2.233 22.929001
-28.110001 4.7129998 7.1100001
-7.2930002 -0.79299998 47.935001
-7.6810002 7.8720002 35.092999
-24.195999 0.114 8.6440001
12.869 -11.109 15.421
24.337 -7.698 25.577999
0.70300001 -14.003 9.6339998
-0.138 12.458 11.331
10.708 -14.892 19.660999
2.4979999 2.802 0
-28.528999 0.86799997 10.787
-12.164 2.9760001 0.30000001
-4.3410001 3.2420001 45.006001
-27.759001 11.121 9.2440004
4.54 -14.623 11.829
0.57300001 13.014 13.265
-25.195 -9.6239996 10.661
12.516 -12.205 21.931999
22.211 6.553 19.903
-1.821 2.6259999 47.911999
15.342 -13.433 22.881001
14.513 12.988 15.652
28.268999 0.15899999 25.16
6.8889999 0.82499999 23.08
-28.089001 -2.5369999 7.053
-19.802 -10.224 10.692
-5.7119999 4.0890002 35.720001
9.7799997 -12.239 14.599
18.819 -12.087 22.372999
-27.922001 -11.056 10.552
-24.007999 -11.435 10.632
-13.761 -10.112 9.0860004
25.341999 -0.84200001 11.029
30.406 0.092 27.285
24.798 -3.6659999 19.138
-0.61000001 11.271 4.698
-15.928 2.1670001 0
9.9890003 -12.969 21.243
-3.6589999 3.2420001 45.006001
-6.7360001 -1.77 45.006001
24.712 -4.612 25.605
9.0469999 -10.272 5.4829998
-1.733 -12.845 12.873
18.349001 -12.148 22.024
-5.2350001 -2.7550001 44.722
-0.97799999 0.211 44.787998
24.426001 -7.6789999 23.799
30.056 -0.85299999 23.271999
12.418 12.204 20.141001
-28.344 0.46000001 7.473
30.018 0.51200002 22.038
24.167 -5.0700002 22.808001
7.204 0.66100001 20.708
-8.217 8.3629999 35.513
10.253 -15.216 21.202
25.658001 6.914 24.231001
22.046 -6.9400001 21.805
16.834999 11.951 16.056
-14.093 -10.196 9.3509998
22.882 -6.072 20.664
-27.75 -3.283 5.8779998
9.3070002 12.469 9.0380001
14.193 13.622 18.886999
6.1570001 7.6799998 0.78200001
-26.709999 11.194 10.673
6.1430001 -10.224 8.75
-1.7 -10.947 8.6129999
17.004 10.546 12.431
-5.724 -1.113 35.425999
-5.704 -1.113 35.425999
-4.75 1.299 37
-1.825 14.51 12.858
18.658001 9.1149998 19.018
25.313 -7.3579998 24.320999
5.98 10.358 8.6429996
20.811001 8.3389997 13.636
-28.993999 9.7720003 10.762
5.9569998 15.486 13.467
4.151 10.792 4.3049998
2.609 -11.553 9.1569996
0.148 -10.52 3.5209999
-28.122 -2.4660001 7.1459999
-7.651 7.3530002 34.507
23.757 -5.164 13.234
-0.63499999 -0.93199998 45.231998
-12.619 12.929 9.5389996
-27.039 -8.9420004 10.536
23.563 -7.5869999 17.875
26.131001 -4.2259998 16.459999
-28.171 -10.738 9.0699997
13.302 -11.382 10.032
20.534 -7.9460001 20.003
10.731 14.724 19.089001
24.025999 -3.734 18.634001
19.950001 10.93 24.278999
18.502001 -8.9289999 17.587
7.007 -10.6 9.9259996
16.485001 -10.521 20.337999
-22.795 -2.8380001 0.30000001
-4.2179999 -8.4239998 0.977
0.523 2.401 0
-28.667 0.53200001 10.794
22.914 6.2789998 24.993999
-4.9910002 3.355 45.265999
30.667 0.861 25.885
12.077 7.0219998 3.5209999
18.556 8.8290005 17.455
4.8140001 -15.444 14.516
1.622 0.86400002 0
-7.5120001 -5.9439998 28.056
9.4540005 7.8769999 2.7379999
25.948999 6.5760002 23.356001
-0.55000001 -0.588 47.700001
23.554001 4.7140002 18.655001
23.725 3.9890001 18.544001
12.193 12.828 12.03
-27.233 1.751 10.769
-28.150999 -3.2460001 7.2259998
24.417 7.5910001 22.726999
25.427999 -6.381 18.662001
15.027 -13.404 20.846001
-4.0949998 -13.919 10.567
20.639999 10.358 20.1
6.5619998 -15.341 13.979
27.502001 -3.9760001 20.535
6.5219998 8.5389996 27.073
17.226 -9.6730003 17.294001
15.218 -11.17 21.698999
25.945999 6.152 23.371
-1.08 -0.949 44.879002
11.451 -11.542 14.998
5.2129998 -14.795 12.701
-25.615 0.465 12.919
24.787001 -1.515 10.829
-0.62199998 -0.45899999 45.084999
-24.353001 7.0539999 1.056
5.6589999 10.652 8.6140003
-27.754 2.0699999 5.888
0.79699999 -10.821 8.5150003
0.405 -1.234 0.30000001
13.411 9.6660004 37.493
-21.969 -11.401 8.9230003
22.552 9.6289997 23.344999
18.413 9.6960001 12.632
-28.323 1.2589999 7.7199998
-28.184999 10.504 9.0670004
-16.641001 10.589 10.832
7.0809999 -1.2410001 0
11.657 -14.404 18.077
17.378 -10.055 20.49
3.7160001 14.804 12.23
28.242001 3.48 23.131001
2.2920001 -12.836 12.403
25.796 6.3049998 23.370001
-3.0090001 3.355 45.265999
-25.475 0.24699999 12.913
26.132 0.60299999 11.978
9.9770002 12.133 14.619
11.211 2.234 0
13.472 14.123 20.558001
-28.356001 -8.4899998 7.8179998
-7.3699999 0.34299999 47.935001
-7.717 8.5310001 38.141998
-5.75 3.0309999 45.299999
11.778 -14.727 21.792999
-25.653 -7.4310002 2.5190001
28.298 -4.1059999 25.042
9.2440004 15.254 20.686001
22.329 4.5040002 10.43
22.531 -5.171 18.198999
-0.70700002 -0.79299998 47.935001
6.0689998 -10.739 8.875
-3.5739999 -0.50599998 0
-5.6560001 3.9170001 33.577999
-1.2640001 -1.77 45.006001
7.138 -0.833 0.30000001
23.858999 -4.1880002 18.615999
10.491 8.1309996 14.572
11.139 14.865 21.621
5.2329998 -8.2749996 1.173
-8.8339996 -7.6950002 37.948002
-5.7360001 2.0280001 35.861
26.937 -5.441 22.349001
23.684999 3.368 11.029
15.1 11.563 12.23
-28.208 -4.9520001 7.0879998
23.181999 8.0959997 18.482
17.687 -12.406 21.825001
-26.690001 -8.6689997 9.4429998
-5.7249999 -0.336 35.448002
22.341999 6.5289998 20.448
-25.235001 5.0539999 0.493
15.021 9.9650002 15.948
15.038 -7.5289998 6.27
-13.076 -10.97 11.024
13.141 8.7080002 36.852001
25.783001 -3.411 24.105
7.9000001 11.988 7.454
-28.320999 -0.90200001 10.856
5.5349998 -10.332 8.507
23.867001 -4.079 12.03
13.028 8.8050003 36.827999
25.575001 -6.8940001 24.190001
11.035 -14.672 19.641001
-26.825001 1.658 12.557
29.261 0.054000001 18.333
-7.296 -13.46 10.11
16.853001 12.531 19.695999
-26.027 -1.881 8.552
24.047001 -8.0500002 25.445999
0.79400003 11.214 8.6730003
28.403 0.023 26.712
4.4299998 15.264 14.402
17.688999 12.368 23.566
4.6389999 -15.312 14.504
27.462999 -5.1550002 24.965
30.487 0.12 25.635
-25.556 -6.4650002 1.568
27.6 -1.245 26.415001
16.582001 13.211 21.702999
3.5550001 -1.234 0.30000001
25.247999 3.3299999 19.707001
9.9499998 -12.926 21.17
-0.324 -10.689 8.5030003
6.7010002 14.821 13.636
-6.1739998 2.0999999 44.756001
-5.723 -1.429 35.375
0.98500001 -13.076 7.651
19.898001 10.974 22.313999
9.7010002 13.03 21.084
-19.575001 12.059 10.542
10.212 15.281 19.275999
14.323 11.544 21.688999
25.997 1.322 19.229
14.542 -11.463 22.541
1.2 -13.076 7.651
-28.461 10.704 10.612
-27.037001 -9.1099997 10.612
12.08 12.295 19.722
12.486 -6.7459998 23.554001
22.851 -8.9259996 23.204
11.38 -7.1090002 3.1289999
-5.704 1.08 35.417999
-7.9809999 7.7800002 35.133999
-28.875 9.9069996 10.793
8.6079998 6.928 1.173
-6.316 -1.943 44.756001
26.745001 4.777 18.379
26.297001 -0.77700001 19.315001
-19.267 -7.072 0.391
-26.434999 -1.868 8.7930002
-8.3830004 -7.52 35.158001
17.691999 -12.207 21.649
28.455 -0.168 26.802999
0.92500001 -15.078 11.78
-2.25 3.0309999 45.299999
25.655001 6.6690001 25.780001
-7.0560002 1.563 45.110001
29.108 -2.029 21.716999
15.53 10.374 16.495001
12.605 -11.953 17.813999
5.296 15.476 14.921
-27.084 1.929 10.582
7.4489999 13.893 11.029
-6.4330001 2.392 47.911999
12.845 7.6290002 4.698
8.9820004 13.076 19.402
-0.79299998 11.475 9.0600004
10.257 11.472 14.446
-0.69400001 10.662 8.5030003
24.261999 -1.062 9.8319998
-7.0630002 -0.214 44.879002
6.4679999 -8.566 28.207001
25.035 5.638 16.662001
11.017 -12.635 21.098
-0.54299998 -14.241 10.43
28.349001 0.95300001 16.459999
-5.704 -0.15099999 35.416
-19.393999 -10.178 10.662
24.499001 -4.8099999 24.632999
17.820999 12.618 22.034
-5.7350001 1.995 35.823002
-20.4 -9.6800003 9.7299995
-28.823999 10.062 9.1140003
-27.826 -3.3239999 6.0700002
21.226999 0.198 6.2919998
-27.094 -8.8039999 10.61
6.1409998 -15.502 13.756
-25.504 0.32600001 12.921
-29.110001 9.5 9.1999998
24.413 -7.645 23.742001
15.764 -12.711 17.066
-28.722 9.1190004 8.9969997
-28.882 10.174 10.667
2.8759999 13.082 13.46
16.079 10.783 23.004
-5.9679999 -2.5190001 44.986
-4.6170001 0.63 0
27.759001 4.3049998 21.299999
13.613 9.566 37.618999
6.6919999 4.9200001 20.576
22.087 -6.8249998 20.986
-12.402 -12.993 11.075
23.969 -7.9790001 22.525
-7.1479998 0.55500001 44.986
-25.441 -0.16599999 12.886
6.1810002 -10.316 8.7910004
-28.184999 -10.68 9.0670004
1.131 -12.516 11.349
8.1339998 14.345 12.832
5.9970002 -10.258 8.6429996
-27.591 -11.172 10.539
-0.29300001 -13.437 8.4429998
-7.8660002 -7.2919998 34.908001
-28.341 -10.309 9.0719995
-7.0450001 1.198 0
27.069 -4.8260002 19.827999
-23.136999 11.564 10.609
-27.607 -10.748 9.0170002
27.062 1.559 14.442
-6.8499999 -1.515 44.998001
-20.027 -1.702 0.30000001
16.763 -9.835 10.829
30.388 0.30199999 25.106001
-24.379 0.82499999 8.5900002
26.296 1.314 12.832
-0.63 0.34299999 47.935001
9.658 -13.039 21.055
16.693001 10.227 11.429
-28.91 9.9829998 10.758
25.775 3.7490001 14.845
-26.885 8.4329996 4.9429998
-24.003 -0.106 8.5
17.542 -9.1990004 16.907
-1.826 2.0999999 44.756001
11.864 12.876 11.829
-25.997 8.3690004 8.618
16.709999 12.63 20.1
-4.059 -3.4690001 45.167999
13.934 -8.3330002 37.325001
15.212 9.882 16.006001
16.794001 -10.387 20.754
13.784 0.296 0
-3.941 -3.4690001 45.167999
3.8729999 -14.738 12.03
-7.8769999 -7.5799999 35.022999
28.841999 -2.464 21.919001
-27.457001 -3.25 5.1529999
21.423 9.8690004 20.707001
26.346001 -0.60900003 12.303
25.021999 -7.552 24.059999
1.63 -15.227 12.038
15.155 9.7290001 15.974
30.129999 -1.197 27.122
6.954 -13.016 8.8389997
-0.704 13.504 8.6409998
-17.415001 10.402 10.726
14.806 -11.889 12.632
28.589001 -0.064999998 26.865
-0.162 -11.148 8.651
24.941 4.3769999 25.674
11.152 -12.238 16.431999
-1.684 -1.943 44.756001
10.222 11.861 14.564
23.365999 -4.5869999 18.483
4.8119998 -13.693 9.4350004
9.3000002 15.057 17.822001
0.072999999 -14.537 11.229
14.54 -11.481 22.573
-4.0570002 -3.355 45.042999
13.933 -9.0039997 37.408001
18.238001 -5.493 7.059
13.684 9.1999998 40.046001
-6.4349999 1.903 44.905998
-20.677999 2.9089999 0.30000001
10.138 12.848 20.250999
2.05 11.665 5.2870002
-3.9430001 -3.355 45.042999
0.755 -13.108 13.401
-4.6300001 3.3499999 45.084999
18.690001 9.3590002 23.718
16.774 -10.284 11.629
2.487 13.139 13.697
17.035 9.9139996 17.903
10.995 -12.475 17.784
5.5380001 10.247 8.5019999
19.125 -8.0340004 17.249001
-1.567 2.392 47.911999
13.289 9.7510004 37.587002
14.054 8.5869999 37.421001
25.121 -7.348 22.702999
6.4369998 -13.327 16.615999
26.190001 6.5079999 24.504
-28.145 -10.798 9.0799999
22.743999 -2.8670001 9.4350004
-28.146999 8.3870001 7.224
2.1140001 12.873 12.53
12.711 -14.33 20.319
11.918 12.189 17.801001
-28.528999 9.8520002 9.0229998
28.080999 -2.4960001 18.482
14.705 0.54500002 0.81400001
-4.717 -3.214 45.014999
-27.108 -8.9750004 10.643
-0.51800001 -14.563 11.346
-5.724 3.971 35.424
-27.136 -7.4260001 10.67
24.148001 -4.5479999 13.033
0.61500001 -8.0240002 0
-2.0320001 -2.5190001 44.986
26.893 -5.1360002 26.344999
-3.3699999 3.3499999 45.084999
23.646999 4.244 18.535999
21.82 -6.4180002 12.03
13.652 8.5240002 37.243
-28.058001 -0.51899999 6.9660001
-0.94400001 1.563 45.110001
7.362 4.9990001 19.531
12.735 -9.4709997 40.201
27.343 -0.91299999 14.24
27.153999 -0.071999997 19.629
19.504999 6.0630002 8.8389997
13.577 8.6239996 40.276001
-16.166 -9.3870001 3.9130001
4.5939999 -15.31 14.478
7.1939998 -12.306 12.493
28.267 0.32800001 26.641001
-5.3759999 0.93599999 22.893
-28.379999 9.7910004 8.6739998
-25.306 -8.4180002 3.6040001
-27.788 10.567 8.9359999
26.993999 -5.335 22
28.650999 -0.96600002 17.274
-0.93699998 -0.214 44.879002
-28.34 0.52499998 7.77
9.8870001 15.279 21.099001
-28.334999 1.751 7.4460001
-27.733 -5.8730001 5.8340001
-3.283 -3.214 45.014999
-5.7309999 -3.448 35.682999
15.435 -9.6739998 9.2360001
14.087 8.5900002 37.464001
7.421 9.9899998 4.3049998
27.895 3.7179999 21.716999
16.639 13.012 23.077
-25.541 -0.63499999 12.836
25.732 3.5150001 25.848
8.9399996 12.368 8.6409998
21.531 0.039999999 6.566
12.662 -11.562 15.8
13.876 -10.823 15.767
8.9890003 -15.119 17.400999
-25.476 0.801 1.001
8.4069996 14.958 16.056
-24.372999 7.237 1.34
13.23 -14.154 22.264
3.1070001 -10.816 8.5319996
2.9170001 11.853 9.8190002
9.2910004 14.182 13.234
-27.711 5.244 6.052
-5.3000002 -2.9200001 44.986
23.798 5.4250002 22.667999
19.745001 -11.554 22.650999
5.7509999 -11.034 8.9799995
2.0580001 -11.283 4.698
-28.431 10.595 10.754
6.4180002 12.926 8.4429998
24.74 3.2390001 18.909
6.546 14.75 13.234
27.693001 -4.4650002 21.740999
6.7719998 -14.906 14.067
-1.15 -1.515 44.998001
10.517 -12.091 15.016
-0.852 0.55500001 44.986
7.882 13.271 18.66
20.857 7.7709999 20.552999
-28.351999 4.8930001 7.4959998
-28.158001 -0.91100001 6.9499998
-28.382 -10.775 10.572
-28.799 3.5239999 9.0719995
9.2270002 13.221 20.684
-1.059 -12.202 10.808
6.7329998 -11.006 9.7449999
-5.704 1.4 35.417
-5.336 -2.973 45.006001
22.291 7.1020002 13.838
26.516001 -1.355 13.234
-27.506001 -11.192 9.2349997
17.823999 -9.6350002 19.000999
6.428 14.843 13.552
-1.5650001 1.903 44.905998
-7.48 -0.354 45.265999
-1.354 13.063 7.849
-26.263 -1.7539999 8.8129997
-22.732 -9.2449999 4.698
-7.8959999 -8.4309998 38.168999
23.965 8.2290001 20.790001
-27.628 11.162 10.54
13.333 -9.4510002 40.143002
25.493 -7.1890001 24.295
24.546 3.763 18.913
20.868999 10.832 22.872
30.129 0.53799999 27.330999
26.355 5.8720002 26.106001
13.975 -9.1499996 37.709
26.983 -5.4559999 23.023001
23.733999 -5.5949998 13.838
0.193 1.198 0
13.922 -8.5810003 37.324001
21.535999 -7.4200001 24.646999
9.3959999 -15.309 20.719999
-5.7350001 2.355 36.613998
5.8000002 -14.815 13.049
14.156 8.5500002 37.724998
-5.7160001 -0.90899998 35.866001
27.177 -5.0609999 21.575001
-8.5360003 -7.592 38.154999
21.348 -6.3579998 17.884001
2.1070001 -10.631 8.5
23.837999 7.9899998 21.226999
-8.0500002 0.236 0.30000001
28.67 -0.15700001 16.632999
14.602 13.839 22.582001
27.025999 4.928 22.761
13.803 8.5229998 40.188
-10.81 1.933 0
13.665 10.506 15.542
27.222 -5.1630001 22.780001
-2.7 -2.9200001 44.986
-7.0029998 -0.31600001 44.722
3.1210001 10.974 8.5869999
-22.867001 -1.375 0
4.8369999 10.901 8.665
2.8380001 11.353 4.8940001
-8.375 11.712 11.644
27.954 2.6830001 18.482
-7.4349999 -0.34900001 45.138
5.6900001 15.483 13.26
5.3909998 8.2309999 1.173
-8.658 -7.5700002 35.366001
16.143 12.694 18.077
10.347 -11.364 14.502
10.791 -12.156 9.4350004
-5.723 -2.8729999 35.383999
19.917 -11.299 22.497999
-27.841 2.0550001 6.1079998
14.137 8.7030001 37.723999
21.792 0.43900001 6.882
-26.997999 -8.7379999 5.402
-21.229 11.701 8.9619999
-27.693001 -3.77 6.0050001
2.8329999 -15.358 12.409
-3.187 2.688 38.669998
-12.834 -12.562 9.3990002
-26.332001 -1.446 12.707
-28.598 9.8900003 9.0780001
13.699 12.645 13.234
-2.7969999 11.966 10.678
11.976 12.255 18.621
-28.278 2.1960001 7.5869999
22.048 6.4349999 18.698999
10.389 -4.5489998 0
8.2510004 -11.77 12.07
-28.438 10.096 9.0570002
-4.8769999 3.388 47.700001
30.177 -0.97500002 25.424
-2.664 -2.973 45.006001
13.533 8.9090004 40.263
4.7589998 -11.219 5.0900002
27.211 0.34299999 13.602
30.454 1.064 25.657
-6.98 1.773 0.30000001
7.1570001 1.1619999 20.108999
-24.409 -11.505 9.0819998
11.115 -14.871 21.614
13.799 -9.0699997 37.332001
18.339001 12.117 23.667
21.506001 7.0570002 19.347
-10.413 -13.296 11.265
6.23 -8.6440001 31.716999
5.355 -13.211 14.991
9.4490004 15.239 20.906
-20.393999 1.539 0.30000001
-27.040001 -1.791 10.624
18.688 9.3610001 23.691999
6.3299999 15.341 13.673
20.521 10.567 21.919001
30.389 0.42399999 25.495001
24.822001 6.9699998 18.516001
3.918 15.432 12.655
-27.204 9.3959999 10.721
13.83 -8.3959999 37.292
-27.924999 0.075999998 6.6090002
-5.52 2.632 44.82
22.403999 2.5880001 8.8389997
-8.2139997 8.2419996 35.319
24.511999 4.796 25.478001
20.16 10.843 24.337
-3.1229999 3.388 47.700001
24.808001 2.8039999 12.03
-5.2470002 -3.0469999 45.014999
-26.041 1.822 8.592
5.1259999 -14.829 12.739
-4.0359998 2.8050001 38.588001
-22.007999 -11.767 9.0799999
-28.355 2.0510001 7.5029998
22.684 6.9390001 14.24
5.6799998 -10.357 8.5290003
29.174 -2.4170001 25.117001
10.644 -10.739 7.059
21.107 -6.362 17.771999
-27.827 0.59399998 6.073
29.645 -0.81800002 20.559999
15.451 -11.086 11.629
-0.366 -11.027 4.3049998
3.3329999 11.823 9.8240004
7.3800001 -1.145 22.947001
-6.9039998 -6.822 8.5
5.0539999 -10.626 4.3049998
10.832 -12.682 21.349001
15.426 13.243 20.909
15.911 10.766 19.782
-1.643 -14.203 10.63
9.2910004 -7.961 2.7379999
14.293 -12.3 13.033
23.816 -4.2280002 18.606001
11.288 5.9920001 1.955
-28.438 -10.589 10.754
1.131 -13.927 9.4350004
12.415 -12.303 11.029
-27.99 -10.987 9.1450005
12.83 9.6029997 40.165001
27.677999 2.904 18.077
25.799999 -2.283 19.360001
10.493 -8.6879997 4.3049998
26.663 2.4230001 25.535
-25.646999 -0.616 4.5749998
13.578 8.5699997 37.213001
10.98 10.449 6.862
0.421 0.79699999 0
-7.8559999 5.4619999 29.716
-6.4489999 2.408 47.887001
-28.687 -0.47600001 12.013
6.1490002 -13.383 9.2360001
20.066 -0.88300002 5.4829998
-6.1009998 -2.714 45.110001
-16.205999 -12.352 9.1809998
8.3190002 15.077 16.402
14.463 -11.446 20.17
-27.891001 1.323 10.962
13.286 9.1499996 40.254002
-26.233 -8.1689997 8.6300001
-2.385 1.365 0
25.924999 3.4860001 26.066999
15.447 0.403 1.372
-15.412 12.489 9.2510004
10.86 -13 11.229
15.365 13.462 21.129
-2.753 -3.0469999 45.014999
-2.48 2.632 44.82
24.598 0.65100002 9.9610004
-28.399 -10.761 10.573
-6.0089998 -2.2539999 44.722
24.874001 -6.3280001 18.024
24.749001 3.309 18.933001
-0.51999998 -0.354 45.265999
24.243 -7.7940001 23.691
18.162001 9.5790005 20.23
28.037001 -0.65399998 15.397
-24.111 0.169 0.30000001
-0.99699998 -0.31600001 44.722
12.692 -9.8299999 39.914001
6.6960001 0.81999999 20.629
21.688 -6.829 12.431
27.379999 -4.908 22.173
-3.858 -7.6960001 28.382999
-12.22 -0.56599998 0.30000001
22.041 8.276 15.854
9.7889996 14.356 14.442
-9.684 -13.14 9.8000002
-2.733 3.3099999 0.30000001
20.889 -2.2520001 7.059
19.914 -8.1890001 12.03
-18.382999 -12.041 9.0509996
24.051001 -7.395 18.886999
27.813 0.55000001 14.848
-25.981001 8.1639996 8.5439997
3.0309999 11.204 4.698
6.4959998 -15.379 13.905
-27.259001 -1.8380001 10.73
-27.250999 -1.8380001 10.73
-28.365 0.234 7.533
3.7509999 -12.698 12.168
-6.881 -1.729 47.953999
-5.723 -4.1900001 35.363998
-0.565 -0.34900001 45.138
-28.254 1.9400001 7.217
-26.875999 -9.1829996 10.526
16.326 -6.869 6.664
8.382 -8.7130003 3.1289999
-27.679001 -3.1259999 5.9699998
24.353001 -1.711 10.43
-6.678 -2.1459999 45.110001
8.7279997 15.098 17.011999
-9.2950001 -13.457 9.9890003
18.495001 11.74 20.707001
-25.629999 0.79799998 12.85
-26.540001 -8.2089996 8.8909998
-2.609 14.371 12.696
21.202 -2.089 7.256
15.791 -11.613 13.234
-7.2150002 -1.38 47.734001
-27.552999 -7 5.6539998
-27.280001 11.067 9.0310001
1.67 8.1350002 33.426998
7.1500001 -14.951 14.601
-27.871 3.6860001 6.1859999
-0.454 14.948 11.627
18.870001 0.34 4.2080002
-27.112 -8.9910002 10.649
-28.143999 -5.388 6.9120002
-19.927 10.244 10.691
-26.576 -9.3330002 10.57
-0.36199999 11.91 5.6799998
-27.365999 -1.658 10.826
20.412001 -10.809 24.356001
27.334999 4.7940001 21.128
15.891 -9.9119997 10.032
15.329 11.231 22.879
-28.716999 8.9610004 8.9619999
26.041 0.866 12.03
29.086 0.68699998 18.176001
27.235001 -4.0489998 19.541
18.080999 1.904 4.3049998
10.296 11.848 14.613
7.5190001 13.263 17.982
-23.156 -11.271 8.9180002
10.136 14.849 18.757999
-8.8620005 -7.4879999 37.977001
19.650999 -0.495 4.9330001
16.778999 -8.9530001 16.461
-4.1300001 -14.024 10.657
17.870001 -0.41 3.375
-28.037001 -2.576 6.9099998
-22.639 -9.9300003 10.644
24.579 -7.5019999 19.766001
-1.899 -2.714 45.110001
16.521 12.213 16.459999
-8.4530001 -7.4130001 35.167999
12.981 11.935 18.912001
-26.761 1.603 12.584
2.46 13.194 13.796
20.356001 9.2620001 14.845
5.066 13.377 14.843
25.576 -3.1570001 20.559999
21.461 7.473 23.174999
-2.526 8.1479998 31.319
27.27 4.8400002 20.952999
25.556 1.749 19.093
10.194 12.266 15.111
5.9499998 -10.692 8.75
13.434 -6.3099999 35.603001
7.9289999 -13.216 18.278
-8.8520002 -7.7839999 37.723
-7.8940001 -4.5209999 31.176001
26.459 1.8279999 20.009001
-29.125 -9.4119997 9.1999998
-0.354 11.203 8.6960001
7.2870002 -14.462 12.632
4.2010002 15.378 12.606
-1.551 2.408 47.887001
11.12 -13.153 11.829
10.474 14.826 19.372
1.005 11.657 9.2749996
28.802999 -0.778 17.43
26.385 4.1960001 17.066
0.028999999 -14.475 11.029
28.177999 3.744 24.903999
17.195999 -12.88 21.739
-6.5430002 -2.0380001 45.006001
24.889 -2.934 18.931
23.636999 -5.638 24.895
19.212999 0.037999999 4.467
-7.2319999 -7.7069998 34.743
10.322 11.538 14.503
28.429001 0.189 26.788
-16.562 9.9160004 4.8940001
3.852 11.516 9.3030005
10.271 15.292 19.524
10.896 14.534 17.268999
19.753 8.6140003 20.941
17.275 -9.3579998 10.63
9.0209999 12.114 8.2449999
3.9519999 -13.246 14.216
27.533001 4.0209999 20.909
23.868999 -7.9759998 21.351
-27.103001 11.046 9.0200005
21.004999 -7.349 12.23
-28.15 -5.3600001 7.223
-6.086 2.5139999 47.992001
29.08 2.434 27
25.577 -3.392 21.708
-27.844999 0.458 6.118
20.097 10.973 22.535
-28.497999 6.7080002 7.927
-5.5900002 -2.49 31.040001
-28.162001 -0.55599999 6.961
-7.323 1.043 45.199001
4.9580002 13.329 14.735
-13.1 -11.075 11.114
10.65 15.113 19.642
-8.5959997 -7.698 35.326
-13.869 10.879 10.981
16.764 12.659 21.368999
-27.525999 -5.533 5.3210001
24.233999 7.9980001 25.354
-26.757999 -9.2980003 10.582
8.1099997 15.003 15.957
-28.735001 9.1730003 9.0270004
-28.108999 -1.1160001 10.943
-1.119 -1.729 47.953999
30.224001 0.207 27.355
-7.448 -0.588 45.265999
9.1020002 -15.384 20.205999
3.8570001 14.136 10.231
0.44999999 12.893 12.762
27.438 1.503 26.455999
-1.322 -2.1459999 45.110001
-28.218 0.16500001 7.414
16.981001 0.69300002 2.7379999
0.77700001 -0.57300001 0
-1.748 -8.2110004 32.083
-26.521 8.3839998 4.4569998
-5.7160001 1.4069999 35.862
17.304001 8.651 9.6339998
29.370001 1.975 23.535
24.548 -0.85699999 10.032
5.3709998 -12.115 6.664
25.481001 6.8400002 25.728001
-29.166 9.2950001 9.2709999
-26.93 1.789 10.206
17.226 9.6730003 17.294001
-28.15 10.776 10.755
24.764 -3.3670001 18.962
24.93 0.045000002 10.196
16.339001 -10.799 23.191999
9.2279997 12.28 14.059
-5.8790002 -2.586 44.986
1.517 15.226 13.42
19.188999 11.339 20.707001
6.2919998 -14.893 13.545
-16.749001 2.835 0
17.634001 -11.269 15.248
15.625 0.403 1.517
4.7859998 -13.113 8.2449999
-15.012 -7.9400001 1.368
5.9879999 -10.325 8.6429996
28.712 1.793 19.089001
12.548 11.414 15.483
-5.0120001 -1.107 37
-22.645 2.842 0.30000001
-0.78500003 -1.38 47.734001
-7.8610001 -5.368 29.913
23.57 -0.62599999 8.7720003
-7.1160002 1.594 45.299999
13.498 8.8929996 40.269001
-4.6409998 3.411 47.830002
28.965 -2.862 26.773001
5.4980001 -13.103 8.4429998
-1.431 14.16 10.43
12.682 -9.8009996 39.985001
-29.146999 9.448 9.2700005
-16.577 7.8309999 1.368
28.17 -0.093999997 23.761
29.643 -1.025 21.111
25.739 -1.9170001 19.184
22.791 8.2840004 17.875
-28.365 1.785 7.5339999
-1.976 -5.8189998 29.232
-26.952 1.74 12.444
10.101 11.944 14.52
2.2409999 15.168 12.061
-5.2750001 -13.954 12.188
-6.1199999 7.8969998 0.391
20.59 -10.481 21.111
30.801001 0.086000003 25.818001
16.083 -11.106 12.431
20.889999 -5.573 9.8319998
-5.723 -0.884 35.370998
-28.358 4.9120002 7.5139999
-5.7030001 -0.884 35.370998
-1.457 -2.0380001 45.006001
16.457001 10.367 18.702999
22.841999 2.211 9.0380001
-25.666 -0.98000002 1.402
-1.914 2.5139999 47.992001
-26.455999 -8.776 9.25
-28.278 2.224 7.5890002
12.661 -13.909 16.662001
22.198999 4.0500002 9.8319998
-3.359 3.411 47.830002
-28.143999 -1.178 6.9120002
-26.098 1.777 8.6719999
1.73 15.13 13.658
6.9460001 -6.7210002 0
7.6529999 15.479 15.853
13.701 14.342 20.759001
-26.902 1.73 10.739
24.417 7.381 18.549999
27.249001 4.7779999 20.535
-27.839001 -0.442 6.382
21.653 2.3039999 7.849
13.78 -8.7390003 37.289001
17.41 12.821 21.951
2.0179999 -12.274 6.27
3.806 -13.627 9.0380001
0.764 -13.078 13.377
-5.7030001 0.435 35.365002
-4.527 3.4430001 47.799
-6.4879999 13.9 10.402
28.233999 -0.94800001 16.17
-6.7969999 2.0910001 47.766998
11.138 3.8710001 0
-28.079 -1.3890001 12.181
16.715 -9.3389997 16.497999
23.215 4.3439999 18.391001
-28.6 9.6079998 8.9700003
-7.6459999 -7.6830001 34.942001
-28.620001 -9.7110004 9.0480003
-2.1210001 -2.586 44.986
20.597 -4.2249999 8.2449999
-26.66 -1.928 9.0930004
26.319 0.699 12.32
25.162001 6.4590001 17.99
9.5340004 12.384 14.789
28.361 0.244 26.742001
0.736 1.9400001 0.30000001
21.825001 -1.749 7.651
-6.0929999 -13.903 10.378
20.747999 7.8979998 20.959
8.1529999 -12.716 14.76
-4.2779999 -3.2809999 45.014999
-3.473 3.4430001 47.799
-8.2220001 8.1540003 38.176998
26.381001 -5.3759999 18.868999
19.004 -7.6630001 17.128
21.704 7.2870002 23.737
-1.141 11.407 8.9910002
18.542 -10.701 15.248
15.224 -13.412 21.056999
-28.141001 4.2280002 6.902
7.302 12.369 12.758
30.129 -0.86400002 24.039
4.6729999 10.427 3.9130001
10.108 -14.736 17.268999
23.739 -8.2700005 23.593
9.2309999 12.05 13.572
5.6020002 -10.232 8.507
30.179001 0.49200001 27.341999
0.59200001 11.059 4.3049998
-25.198 -8.2980003 3.3629999
24.285999 8.118 23.808001
-3.7219999 -3.2809999 45.014999
20.375 -8.7019997 13.636
2.6919999 15.334 12.301
-23.596001 -11.472 8.9560003
4.8400002 2.5009999 0
29.915001 1.304 27.231001
18.584 -8.3730001 17.087
0.96899998 11.059 4.3049998
7.9159999 12.961 15.826
-0.67699999 1.043 45.199001
25.714001 -2.1849999 19.240999
28.347 0.152 26.638
-27.889 5.9629998 6.5120001
-27.58 11.172 10.574
6.9419999 7.3790002 0.78200001
14.732 11.488 22.700001
-25.722 -8.8830004 4.5549998
23.834 8.1890001 25.408001
-26.014999 -8.059 8.5380001
-26.785999 8.323 4.7069998
5.9109998 -10.784 8.7910004
-27.267 -9.4510002 10.728
-7.0440001 -0.87300003 44.970001
30.756001 0.57200003 25.912001
26.483 5.9580002 22.492001
-27.802999 5.698 6.013
-25.792 0.99699998 1.671
-0.479 -10.757 3.9130001
25.742001 4.4000001 15.854
-8.0959997 -8.2770004 38.18
7.1020002 -12.042 11.706
-28.789 10.254 10.725
6.5219998 -14.754 13.234
-0.66100001 12.477 6.664
-28.267 1.135 10.787
12.897 -9.7779999 39.970001
-0.55199999 -0.588 45.265999
7.9499998 11.339 11.356
14.213 11.84 11.829
-29.003 9.9510002 9.2629995
11.498 -7.73 14.877
-26.061001 1.882 8.5629997
22.715 -8.632 19.089001
12.44 14.164 18.077
16.108999 10.149 16.736
24.375 3.8870001 18.822001
4.507 -1.1339999 0.30000001
-3.6589999 -12.416 12.402
17.222 11.684 15.854
12.542 9.4689999 40.183998
-27.975 5.9390001 6.4580002
21.486 -9.757 20.1
24.721001 -0.65399998 10.113
13.72 11.854 22.379
6.5149999 13.283 16.562
-28.309999 -4.2540002 7.6820002
10.51 12.201 15.249
-25.434 -0.16599999 12.867
-28.436001 0.59899998 7.7420001
1.205 2.0999999 0
-5.7319999 -3.8829999 35.721001
8.0719995 -6.1529999 0
8.073 -6.1529999 0
-5.7119999 -3.8829999 35.721001
14.182 -13.756 20.695
27.4 -4.928 22.521
24.323999 -7.0190001 18.455
27.388 -2.72 16.864
22.212 -9.257 20.504
0.044 10.883 8.533
6.77 12.972 14.731
-0.884 1.594 45.299999
-28.445 10.038 9.0410004
21.087 -10.709 23.013
-8.8129997 -7.48 38.036999
-5.7270002 -3.5220001 35.528
6.2849998 -15.487 13.807
-5.7069998 -3.5220001 35.528
-8.9399996 -7.2839999 37.818001
27.028999 -0.244 13.256
-27.958 0.11 6.697
4.8920002 11.835 6.0739999
20.554001 -0.653 5.8060002
-18.634001 12.13 9.1090002
13.788 11.864 11.429
20.503 -10.976 22.684999
19.735001 7.678 11.029
-8.2550001 -8.4790001 37.896999
-5.7319999 1.164 35.733002
-27.820999 -1.154 6.0580001
29.843 1.53 27.152
-20 -0.98000002 1.402
-5.7119999 1.164 35.733002
24.459 3.902 18.892
12.255 -12.265 20.416
-18.214001 12.062 9.059
-14.119 10.251 9.4840002
-19.208 -12.095 9.1470003
27.24 4.7160001 23.131001
0.70899999 10.53 3.5209999
9.974 -12.134 14.616
6.5359998 10.626 9.3109999
6.2140002 -15.499 13.78
7.8280001 13.425 18.709
26.674 -2.4219999 26.134001
24.351999 -8.2209997 23.952999
-23.207001 -11.619 9.0430002
-28.483 -0.41299999 10.974
-27.948 0.097999997 6.6700001
22.615 9.1120005 23.167999
0.89099997 10.53 3.5209999
-6.4980001 -2.145 45.014999
-4.875 12.394 12.263
-7.6589999 -7.4229999 34.660999
27.857 0.54900002 23.058001
27.813999 4.3169999 26.427999
9.8210001 -0.57300001 0
5.2049999 -13.182 14.753
10.998 -12.624 19.983999
13.805 8.4560003 40.188
-26.705999 8.4110003 4.6989999
18.025999 -0.484 3.529
-1.352 -14.633 12.955
13.02 -9.5710001 40.162998
-28.521 -0.93699998 12.023
-28.23 -6.1329999 7.1490002
13.739 -11.777 22.299999
1.973 -14.757 11.829
-28.41 -0.63099998 10.968
-4.46 -11.964 11.191
7.1290002 -1.1339999 0.30000001
20.459999 -4.6160002 8.4429998
-27.187 1.756 10.767
24.415001 6.2319999 16.459999
-1.2029999 2.0910001 47.766998
15.802 0.403 1.6619999
28.386 0.15800001 26.724001
12.429 -12.222 21.250999
25.767 5.796 17.988001
20.943001 -7.75 20.962999
-10.194 13.162 9.7410002
5.0900002 14.797 12.655
13.482 14.109 22.334999
0.98799998 10.653 8.5
-8.7220001 7.9489999 37.958
-7.9289999 -2.825 32.525002
-27.083 8.875 10.596
3.299 -13.357 14.075
-6.901 -1.415 44.998001
9.6540003 12.618 16.132
4.3249998 -15.253 12.59
21.599001 -0.66799998 6.789
6.1680002 -13.269 16.061001
-10.895 -8.9790001 2.5420001
-28.201 -6.322 7.0689998
-5.2360001 -1.776 0
22.080999 -0.442 7.164
1.697 -9.9659996 2.7379999
-7.4439998 5.7329998 25.471001
-27.552999 7 5.6539998
-5.1040001 3.3210001 47.700001
4.5819998 -15.42 12.735
4.3730001 -11.286 5.0900002
14.863 -10.774 16.524
21.325001 10.148 24.656
18.349001 8.8000002 17.201
-8.6820002 -7.1690001 35.347
-28.822001 9.9879999 9.1040001
4.8790002 14.921 12.728
19.961 -10.97 24.278
25.825001 3.2720001 22.995001
-27.916 3.4260001 6.303
10.297 11.282 7.651
24.92 6.9640002 18.865
-11.01 -10.704 9.757
9.7790003 13.663 12.03
-27.780001 3.4549999 6.2290001
26.707001 -5.698 22.344999
-28.635 -0.048999999 10.824
7.0289998 -15.327 17.573999
-11.267 13.17 11.163
25.594999 -0.50099999 11.165
23.242001 -5.9990001 24.325001
13.411 13.732 17.268999
30.041 -1.1670001 27.243
28.737 -2.8699999 23.535
-28.15 -2.9719999 6.927
10.138 -6.7719998 1.955
-7.3260002 8.434 35.278
-8.8509998 13.434 9.941
17.122 -11.844 16.257999
-28.513 3.25 7.9710002
