# .PCD v0.7 - Point Cloud Data file format
VERSION 0.7
FIELDS x y z
SIZE 4 4 4
TYPE F F F
COUNT 1 1 1
WIDTH 1632
HEIGHT 1
VIEWPOINT 0 0 0 1 0 0 0
POINTS 1632
DATA ascii
84.184143 84.851242 -0.5085966
76.245529 25.601515 -32.989368
32.996586 11.177362 -34.060307
77 58.958496 -18.46278
77.133072 9.4399157 -0.1339746
77.751602 84.998253 -31.771429
84.766045 62.347828 -0.35721239
76.212334 83.319939 -33.06707
85 58.958496 -18.46278
84.134171 0.59668726 -0.094828151
30.33996 7.7904434 -32.751755
84.342018 84.93969 -7.909091
77.109596 84.638084 -31.67844
77 74 -24.700001
30.355669 8.0357037 -33.586624
78 84.173645 -0.015192247
30.315193 4.3602257 -39.173649
77.906776 84.996246 -30.481186
84.5 84.866028 -32.090908
70.259918 8 -16.683273
85 1 -1
81 84.173645 -0.015192247
84.938362 0.80682856 -0.71335155
84.98481 84.173645 -21.727272
76.974197 84.384232 -31.712725
84 84.173645 -0.015192247
85 74 -24.700001
84.93969 15.434783 -39.342022
77.5 47.5 -0.1339746
77.826355 84.98481 -11.977282
30.315193 7.1736484 -15.643567
30.443525 7.7886968 -32.063519
75.767342 8.1456404 -0.23395556
31.158751 0.27785313 -0.32283485
84.93969 29.869566 -0.65797985
30.799999 7.8660254 -15.643567
84.203835 0.023586733 -0.92880273
30.731756 7.8639808 -31.26388
74.42173 79.265572 -33.975117
77.014709 84.218773 -31.187981
84.595825 0.35793456 -39.482433
76.109222 8.2069397 -0.1339746
77.2799 84.959076 -33.487877
76.183052 83.400421 -33.154079
76.912376 62.105297 -31.719757
30.617785 8.4524975 -33.315163
84.342018 37.086956 -39.939693
75.892189 82.512291 -33.33984
31.158751 7.677165 -0.27785313
84.866028 80.391304 -39.5
30.603916 7.8205147 -31.535873
75.756119 82.114632 -33.435467
67.443665 68.984947 -34.5
30.35737 0.74245065 -39.212414
30.303949 7.7879577 -33.616867
77.350723 84.765594 -30.615761
30.299999 7 -1
30.421658 7.6882634 -31.851248
30.360308 0.65797985 -14.818182
54.004009 46.119511 -39.866024
77.320404 84.414024 -39.877327
77.826355 36.549999 -0.015192247
61.714516 58.832771 -39.866024
76.912636 32.902271 -31.718723
84.342018 22.652174 -0.06030738
30.315611 7.4069796 -31.767248
32.487144 11.347862 -39.5
76.058983 83.276939 -33.349926
76.245529 54.804543 -32.989368
30.488895 0.6722095 -0.51557994
36.3424 17.704493 -39.5
74.453125 80.329002 -34.182636
84.095024 0.04264354 -0.72716594
76.908653 84.01133 -31.735926
84.98481 11.826087 -39.173649
69.425026 71.546028 -39.866024
84.342018 84.93969 -18.272728
84.173645 73.173912 -39.984806
32.150951 11.016629 -34.778858
84.926117 0.63332796 -0.91133815
30.433975 0.5 -14.818182
31.126352 1 -0.015192247
31.366047 8.7911224 -33.042725
77.404175 84.482437 -0.35793456
31.018408 8.420083 -32.602699
77.049217 84.672295 -32.016273
76.856628 84.707794 -33.472038
77 50.07032 -22.35
84.98481 84.173645 -32.090908
31.115856 0.14875762 -0.5085966
30.395464 7.6109486 -31.736753
84.173645 58.739132 -39.984806
85 50.07032 -22.35
77 74 -15.3
77.231491 84.641174 -30.448725
77 49.828506 -17.273733
75.989365 8.754468 -16
76.737656 84.552406 -33.171036
75.924934 82.473633 -33.303928
31.349653 8.4942389 -32.650139
76.664558 9.3501749 -0.5
30.541136 7.9841981 -32.261639
84.98481 47.913044 -0.82635182
30.404831 8.1660738 -33.915916
85 74 -15.3
85 49.828506 -17.273733
77.5 65.75 -0.1339746
30.423216 8.2013273 -33.964584
31.289339 9.3909578 -33.875126
37.347839 0 -20.668879
77.27449 9.3694983 -0.06030738
30.360308 0.65797985 -25.181818
71.644043 0 -20.789564
84.942627 0.74245065 -39.212414
84.93969 0.65797985 -14.818182
76.879105 84.483551 -39.546257
40.303017 24.234842 -34.5
30.301228 7.7698035 -33.961601
84.642784 84 -39.766045
57.941452 52.887005 -34.233955
30.574051 7.887054 -31.88936
77 50.07032 -17.65
71.576653 0 -19.000391
85 50.07032 -17.65
84.342018 84.93969 -28.636364
70.9767 74.952354 -39.342022
30.651022 8.4705114 -33.237694
77.522354 84.999161 -33.494205
75.888641 8.4990339 -0.5
77.311676 84.910995 -32.252464
76.677979 83.927254 -32.357426
77.826355 54.799999 -0.015192247
30.360308 7.34202 -30.287134
71.125175 74.862305 -39.642788
77.426491 84.942726 -32.111435
30.433975 0.5 -25.181818
74.818481 81.33403 -34.374268
76.529709 84.162117 -32.895428
73.64711 79.311546 -34.577045
84.173645 1 -0.015192247
30.933329 0.073884077 -0.91133815
30.470701 7.8189158 -32.037491
74.298393 7.77984 -0.35721239
77.072426 84.871368 -36.272564
31.126352 7.984808 -22.965351
84.866028 0.5 -14.818182
84.93969 44.304348 -0.65797985
30.429436 8.2119179 -33.855911
74.747513 9.4417753 -33.452175
30.51148 8.3356228 -33.531509
42.833641 27.072231 -34.015194
71.51178 75.262054 -34.233955
75.212769 7.8694925 -0.23395556
76.923637 84.168655 -31.725714
30.59074 7.7088552 -30.585468
74.086166 10.406816 -33.939507
76.805046 47.503784 -32.063816
52.02021 43.361614 -34.357212
30.517221 7.9307823 -32.190044
30.299999 7.0021715 -30.383978
30.944342 0.37278596 -39.692898
31.282862 8.786335 -33.057987
76.978127 10.63839 -23.5
77.101028 84.81163 -32.400806
32.052437 9.908186 -33.846634
31.025949 0.2494075 -0.3987453
30.472698 7.562089 -30.370974
76.646469 84.387878 -32.958973
30.351555 7.9855881 -39.173649
46.293499 33.406254 -39.866024
77.252167 84.715576 -31.242903
84.93969 84.342018 -35.545456
39.846336 0 -15.822474
31.126352 7 -0.015192247
84.597893 0.78121704 -0.22886153
30.433975 7.5 -30.287134
77.033073 84.551453 -31.764837
84.342018 37.086956 -0.06030738
84.93969 0.65797985 -25.181818
56.403965 49.447285 -34.015194
50.148754 39.762882 -39.866024
77 77.828506 -22.726267
77.5 84 -0.1339746
75.93734 83.108475 -33.505672
30.311831 7.8024125 -33.290131
77.028984 84.240623 -30.485411
77.307098 84.824455 -31.629232
77.00399 84.789841 -32.763966
76.912567 40.20303 -31.718981
84.35183 84.299393 -0.11310558
84.5 84 -0.1339746
85 77.828506 -22.726267
84.342018 84.93969 -39
77 74.446762 -24.678719
69.695244 71.991577 -34.133976
77.228859 84.218781 -0.40210414
84.562683 84.824532 -0.94056249
76.468948 32.902271 -32.704193
30.978846 7.9538732 -30.984119
85 74.446762 -24.678719
76.64463 83.863365 -32.418213
84.866028 0.5 -25.181818
77.657982 25.6 -0.06030738
84.93969 29.869566 -39.342022
30.518116 8.1153631 -32.690399
76.213417 10.641049 -32.99297
30.695679 7.9786167 -31.87809
84.5 4.6086955 -39.866024
76.9991 84.687729 -32.261951
71.289391 0 -18.148157
77.826355 73.050003 -0.015192247
76.805046 18.300756 -32.063816
73.707558 78.302521 -34.060307
30.793566 8.4045944 -32.769928
77 50.652161 -19.33112
70.568863 0 -17.010731
30.865551 7.9792538 -31.561361
31.239939 8.0084944 -31.233419
84.764999 0.60294688 -0.49292907
84.355659 0.37278596 -39.692898
77.233955 84.642784 -11.977282
76.975761 9.1574879 -0.1339746
30.400301 8.1231308 -39.168499
76.469635 84.125519 -33.235714
30.54579 8.2651253 -33.028576
84.763565 84.48484 -0.57350343
77 84.00219 -30.515343
30.420368 7.7241631 -31.977444
85 50.652161 -19.33112
30.772202 8.7507057 -33.673344
77 19.747839 -20.66888
77.131889 84.773949 -32.083134
30.697763 7.8903913 -31.53816
31.285284 9.1432762 -33.523617
76.828896 84.593277 -32.692799
76.808693 84.656464 -36.272564
75.595146 9.9624481 -33.319267
77.188896 84.484421 -0.6722095
77.264908 84.713997 -31.109928
85 19.747839 -20.66888
31.000351 0.13522655 -39.402962
30.394829 0.86582565 -39.403313
30.957979 7.9396925 -19.304459
77.48114 84.983147 -32.587124
30.873503 7.7635627 -0.51515698
59.587631 56.260803 -34.826351
31.296761 8.3177738 -32.34375
30.957979 7.9396925 -26.626244
68.757324 0 -15.709674
84.98481 26.26087 -39.173649
31.025949 7.6012545 -0.2494075
77.137093 84.511421 -30.656242
77 47.324142 -24.509617
76.949425 84.320999 -31.739799
30.733032 8.5095692 -33.106239
31.721384 10.343611 -34.82354
75.061852 81.741753 -34.263317
84.402962 84.299652 -39.864773
30.533955 7.6427875 -4.660892
76.473648 83.749733 -32.716354
70.845055 8 -17.366241
77.417404 84.955574 -32.330933
85 47.324142 -24.509617
31.299999 0 -39
74.327606 80.593689 -34.821175
74.831955 81.308983 -39.342022
30.554089 7.8058619 -31.668678
77.506348 84.314156 -39.947678
30.323587 7.071197 -0.79616654
77.133972 84.5 -19.295469
74.389084 79.758629 -34.049618
77.138565 84.876442 -39.227291
75.063812 25.601515 -33.80505
30.657213 7.7660446 -11.982676
84.342018 65.95652 -39.939693
74.980431 81.218933 -39.642788
31.280708 8.0013275 -31.093147
77.282928 84.607224 -0.65782297
73.157959 78.635857 -34.826351
77 21.858988 -23.953892
75.209595 81.511353 -33.840473
84.642784 4.6086955 -0.23395556
53.873341 46.609898 -34.5
30.433975 4 -0.5
76.376404 83.756828 -32.923981
77.657982 43.849998 -0.06030738
30.382435 8.1180382 -39
71.696335 0 -19.891739
76.474228 84.130028 -33.159397
30.556238 7.9347034 -32.083397
77.517563 84.595825 -0.35793456
85 21.858988 -23.953892
84.342018 51.52174 -39.939693
46.56691 33.552418 -34.060307
30.445589 7.9858494 -32.611237
38.582993 20.692995 -39.866024
74.6259 80.827751 -34.249981
31.690384 10.284731 -34.712555
76.288254 9.3708029 -32.053375
77.383591 84.983688 -33.457298
42.438248 27.049625 -39.866024
75.394173 62.105297 -33.656368
84.299652 0.13522655 -39.402962
77 48.541012 -16.046108
77.392776 84.717072 -0.65782297
73.944702 79.101784 -34.143944
77 78.694679 -19.776365
84.342178 0.28292963 -0.3927727
84.905174 0.86582565 -39.403313
76.924782 11 -31.667562
31.265865 8.3702116 -32.445114
30.742022 8.3473768 -32.725109
84.771141 84.597893 -0.78121704
85 48.541012 -16.046108
30.712656 8.1975346 -32.430519
77.78759 84.942627 -0.74245065
85 78.694679 -19.776365
34.424175 14.683735 -34.657978
84.93969 44.304348 -39.342022
84.173645 15.434783 -0.015192247
77.061302 84.853416 -33.023548
84.203835 0.92880273 -0.023586733
84 0 -39
76.854362 9.2326555 -0.23395556
30.806839 7.8711624 -30.508596
30.394829 7.4033127 -0.86582565
84.98481 76.782608 -0.82635182
30.299999 7.0004387 -30.328901
31.228804 0.79616654 -39.976414
77.233955 18.299999 -0.35721239
77.110504 10.114986 -0.35721239
38.388142 10.282053 -33.912827
77 62.953236 -15.321282
74.096619 8.47365 -32.614998
75.063812 54.804543 -33.80505
30.450941 7.5933089 -31.219929
30.366598 7.9079776 -32.850922
77.392876 84.837044 -31.239481
76.772346 84.565605 -39.234264
31.299412 8 -30.33493
84.98481 62.347828 -0.82635182
30.746794 0.50031328 -39.666542
30.360308 0.65797985 -1
45.510513 10.282053 -33.912827
85 62.953236 -15.321282
30.872482 7.9797373 -39.866024
77.431351 84.823418 -30.422115
74.595345 80.866722 -34.338951
77 59.571491 -17.273733
30.960945 8.3139544 -32.43
34.727737 14.336367 -39.866024
84.866028 8.217391 -0.5
75.000702 80.504425 -33.831833
52.632885 10.282053 -33.912827
30.792929 7.3970532 -0.23499809
77.39032 84.921921 -32.028763
77.657982 62.099998 -0.06030738
78 84.93969 -0.65797985
30.533955 4.3602257 -39.642788
30.374411 7.7057557 -32.198719
85 59.571491 -17.273733
76.306839 83.502831 -32.957611
81 84.93969 -0.65797985
59.755257 10.282053 -33.912827
84.98481 40.695652 -39.173649
84 84.93969 -0.65797985
76.411476 83.955856 -33.01429
30.689009 7.8206677 -31.101988
76.703865 84.480301 -32.986324
66.877632 10.282053 -33.912827
30.433975 0.5 -1
55.555683 49.525837 -39.342022
84.93969 73.173912 -0.65797985
77.554222 84.167099 -39.985901
30.944342 0.37278596 -0.30710053
31.208044 8.2007494 -32.083191
77.322838 84.141251 -0.27785313
31.777512 10.314478 -34.462009
30.600254 8.0674477 -32.325962
63.266193 62.239098 -39.342022
84.983528 0.91915566 -0.83834374
32.634029 11.397249 -34.357212
76.659744 84.43898 -33.266434
30.957979 0.06030738 -7.909091
63.414669 62.149048 -39.642788
84.93969 58.739132 -0.65797985
77.042915 84.401886 -31.394297
77.485069 10.677061 -0.1339746
84.5 19.043478 -39.866024
77.357216 21.950001 -0.23395556
76.797272 84.365662 -32.276764
30.905247 8.6366377 -33.082985
76.761261 83.940971 -32.173748
30.301815 7.0632882 -30.424618
84.071198 0.79616654 -39.976414
31.990356 10.657058 -34.546268
31.281748 8.7242184 -32.977013
76.82843 8.1715727 0
76.703278 8.535635 -0.06030738
76.084015 82.811676 -33.160748
75.130257 10.417951 -33.7173
31.166449 8.1275263 -31.878685
76.931602 84.774849 -33.380146
77.047249 10.71763 -0.65797985
32.133907 11.014905 -34.872646
30.360308 0.65797985 -11.363636
67.449333 0 -15.390204
84.342018 65.95652 -0.06030738
84.851242 0.8158558 -0.5085966
31.007118 8.4691591 -32.696388
84.553207 0.50031328 -39.666542
84.93969 0.65797985 -1
30.373981 7.4048834 -30.848869
84.766045 11.826087 -39.642788
77.569054 84.946419 -31.463057
77.233955 36.549999 -0.35721239
47.994499 37.058788 -34.657978
76.094444 8.8965912 -31.434696
31.205942 8.7206707 -32.997219
30.506926 8.3411837 -33.727188
84.366669 84.088661 -39.926117
84.342018 51.52174 -0.06030738
76.912315 69.406059 -31.720015
84.342018 84.93969 -14.818182
75.94426 83.24894 -33.745735
30.959534 7.9894791 -31.450052
30.533955 1 -0.35721239
31.280336 8.2385359 -32.172569
30.433975 0.5 -11.363636
77.657982 80.349998 -0.06030738
73.758484 78.743469 -34.144413
30.320709 7.8684511 -33.332935
30.554113 0.82569408 -0.35713923
84.866028 0.5 -1
61.564823 59.433842 -34.657978
30.4678 8.267066 -33.590305
60.137238 55.927471 -34.060307
30.957979 0.06030738 -18.272728
30.465914 7.5276752 -0.83918774
84.342018 0.06030738 -7.909091
77.928802 84.97641 -0.79616654
77 23.075857 -15.490383
30.530954 7.6407723 -30.472948
77.633331 84.088661 -0.073884077
84.642784 19.043478 -0.23395556
30.815233 8.0159569 -31.79055
36.738743 17.652159 -34.133976
30.675999 7.8264079 -31.25666
85 23.075857 -15.490383
30.563789 8.4182444 -33.504986
76.912827 10.282053 -16
77.130508 9.7872353 -0.23395556
30.360308 0.65797985 -21.727272
77.357216 40.200001 -0.23395556
76.64196 84.397148 -33.051979
84.866028 84.5 -35.545456
84.93969 0.65797985 -11.363636
76.994904 84.593002 -32.000603
74.335892 8.0188637 -1
77.016609 84.432388 -31.600834
84.161659 84.983528 -0.91915566
30.902946 0.23499809 -39.507072
77 84.003479 -30.636375
84.160812 0.16591454 -0.47232503
77.125893 84.715164 -31.868727
73.368744 79.0056 -34.90876
30.490288 8.0871534 -32.71381
84.342018 84.93969 -25.181818
76.997726 84.628624 -32.081474
84.866028 4.6086955 -39.5
77.233955 54.799999 -0.35721239
32.132565 9.5699034 -33.637199
73.588531 79.368439 -34.892918
30.433975 0.5 -21.727272
76.429718 83.860039 -32.856831
84.766045 1 -0.35721239
31.219156 0.016469909 -39.161655
84.866028 0.5 -11.363636
31.207434 7.9962425 -30.665354
51.700428 43.169209 -39.342022
30.448881 7.9595518 -32.523003
31.022537 7.972178 -31.159565
42 0 -24.700001
84.173645 29.869566 -0.015192247
76.80069 9.9557257 -31.256193
76.811729 84.123222 -32.076168
51.848904 43.079159 -39.642788
76.676216 9.648756 -31.109505
84.5 33.47826 -39.866024
59.410938 55.882469 -39.342022
31.299999 1 0
30.3279 7.8136296 -32.979706
30.957979 0.06030738 -28.636364
77.357216 84.766045 -26.613657
37.347839 8 -19.33112
30.455091 8.2557173 -33.863831
84.692902 84.627213 -0.64434165
84.342018 0.06030738 -18.272728
31.932526 10.301013 -34.217663
77.06031 14.65 -0.65797985
76.468948 9.2958059 -23.5
30.471127 0.44551083 -0.92576528
59.559414 55.792419 -39.642788
75.063812 8.1949511 -16
76.755127 84.580338 -33.219746
67.121445 68.595726 -39.342022
30.861326 7.9761119 -39.861511
31.270437 8.1720915 -32.002052
84.342018 80.391304 -39.939693
76.94545 84.150925 -31.618324
30.318621 7.2074265 -30.625704
84.455544 0.15823893 -0.71030778
31.23447 8.1564016 -31.957224
75.053375 9.3708029 -33.288258
67.26992 68.505676 -39.642788
74.360123 54.804543 -33.978306
30.533955 7 -0.35721239
30.360308 0.65797985 -32.090908
32.841873 11.122023 -34.102886
77.700348 84.402962 -0.13522655
30.385328 7.8976717 -32.684696
71.037445 8 -22.474117
30.848978 8.1842613 -32.228043
84.93969 0.65797985 -21.727272
67.800003 0 -24.700001
30.533955 7.6427875 -22.965351
84.866028 22.652174 -0.5
77.354118 84.898781 -31.962074
77.563049 84.93969 -39.342022
77.623253 84.9991 -32.571362
77.531654 84.891945 -30.779888
77.657982 84.93969 -15.636375
80.781525 84.93969 -39.342022
77.131424 84.798218 -32.202049
84.397057 0.23499809 -39.507072
74.003387 78.590858 -34.023285
84 84.93969 -39.342022
77.854469 84.899368 -0.5877372
84.886894 84.35183 -39.299389
77.357216 58.450001 -0.23395556
73.811653 79.718193 -34.785763
30.661438 8.5959482 -33.744099
38.555275 20.92264 -34.233955
30.418533 8.0632153 -32.996918
84.93969 73.173912 -39.342022
30.433975 0.5 -32.090908
76.9646 84.129196 -31.502432
77.300049 10.383114 -0.23395556
73.861427 79.82505 -34.935314
30.396338 7.6523051 -31.87957
30.799999 4 -0.1339746
84.866028 0.5 -21.727272
84.080841 0.016469909 -39.161655
84.642784 8.217391 -39.766045
77.233955 73.050003 -0.35721239
84.93969 58.739132 -39.342022
30.588148 8.1209745 -32.49456
77.227798 84.942131 -39
30.823093 8.2503729 -32.406734
30.957979 0.06030738 -39
84 1 0
84.342018 0.06030738 -28.636364
30.395342 7.7314501 -32.141243
76.030884 82.887375 -33.232903
84.642784 33.47826 -0.23395556
30.611784 7.9182291 -31.882135
42 0 -15.3
39.094654 8 -16.30555
76.621948 84.209221 -32.631794
76.487579 83.637024 -32.677891
30.667307 8.0236168 -32.067383
31.513666 8.8031492 -33.043007
30.897039 0.13522655 -0.70035094
77 20.329681 -22.35
76.635895 84.288719 -32.710758
75.614998 8.47365 -31.096619
51 0 -15.3
77.114456 84.583191 -31.480398
30.723274 7.8202553 -30.607643
84.93969 0.65797985 -32.090908
84.766045 26.26087 -39.642788
30.299999 7 -30.287134
84.98481 69.565216 -39.173649
85 20.329681 -22.35
30.57338 8.0126266 -32.248707
31.299999 7.8660254 -0.5
31.320162 8.4056339 -32.506641
76.091766 83.172577 -33.221706
75.844246 8.5578222 -0.65797985
74.36161 8.0218735 -8.5
34.858334 7.8660254 -0.5
31.299999 7 0
30.333611 7.2628531 -30.52029
77.254128 84.757233 -31.4923
38.416668 7.8660254 -0.5
77.006279 84.502556 -31.770693
84.5 84.866028 -4.4545455
41.974998 7.8660254 -0.5
77.5 84.866028 -30.272751
84.98481 55.130436 -39.173649
38.388142 8.5310488 -32.704193
46.204357 33.772305 -34.357212
78 84.642784 -0.23395556
45.533333 7.8660254 -0.5
77 20.571493 -22.726267
81 84.642784 -0.23395556
84.173645 44.304348 -0.015192247
49.091667 7.8660254 -0.5
84.866028 0.5 -32.090908
45.510513 8.5310488 -32.704193
84 84.642784 -0.23395556
75.394173 32.902271 -33.656368
52.650002 7.8660254 -0.5
77.357216 76.699997 -0.23395556
47.845177 36.81258 -39.342022
77.589012 84.912209 -30.404518
74.337517 7.3576245 -0.06030738
85 20.571493 -22.726267
32.041843 10.649367 -34.442551
77 20.329681 -17.65
44.138397 30.365902 -39.642788
76.193611 83.668182 -33.534443
56.208332 7.8660254 -0.5
76.7173 10.417951 -32.13026
52.632885 8.5310488 -32.704193
84.5 8.217391 -0.1339746
30.331762 7.9285493 -33.372814
47.993649 36.72253 -39.642788
30.423044 7.9636903 -32.656544
76.943481 10.162507 -0.65797985
77.381279 84.860138 -31.526861
59.766666 7.8660254 -0.5
77.077766 84.736702 -32.135193
75.057312 80.449593 -33.807507
84.342018 0.06030738 -39
76.583305 10.704402 -32.496376
30.351738 7.8938999 -32.942875
31.847683 9.9687996 -33.991356
63.325001 7.8660254 -0.5
85 20.329681 -17.65
76.40641 83.64473 -32.815693
59.755257 8.5310488 -32.704193
77.186966 84.782394 -31.907286
77.057091 84.477249 -31.490061
77.717239 84.999619 -32.119831
66.883331 7.8660254 -0.5
55.704159 49.435791 -39.642788
30.96113 8.8002186 -33.318714
77.120262 84.7285 -39.522713
59.774681 56.147358 -34.357212
70.441666 7.8660254 -0.5
31.830444 10.314995 -34.363052
73.691635 78.785851 -34.199013
66.877632 8.5310488 -32.704193
31.467543 8.7378626 -32.970512
77 11 -31
74 7.8660254 -0.5
77.305908 84.960876 -39.102951
84.866028 37.086956 -0.5
76.656364 25.601515 -32.394169
30.746794 7.6665401 -0.50031328
30.933329 0.073884077 -39.088661
84.342018 80.391304 -0.06030738
77.052208 84.54734 -31.67728
74 7 0
76.234741 83.038086 -33.00148
31.956732 10.65796 -34.632156
76.851875 84.333305 -32.079731
30.363741 8.0460987 -33.484444
75.543083 81.517517 -33.572723
77 50.567513 -18.891933
77.104111 84.742119 -32.05468
31.010307 0.54445994 -0.15823893
32.207222 11.005859 -34.597218
85 50.567513 -18.891933
77.06031 51.150002 -0.65797985
77 19.958496 -21.53722
84.866028 19.043478 -39.5
32.919579 11.076183 -34.063534
77.380867 84.978462 -33.065796
40.201454 24.29644 -34.826351
31.660078 9.3752012 -33.572372
77.599747 84.93734 -31.098577
77.01519 84.173645 -30.272751
84.98481 84.173645 -4.4545455
84.766045 15.434783 -0.35721239
84.059441 84.562683 -39.824532
77.655724 84.940247 -30.48131
85 19.958496 -21.53722
30.353384 7.3783574 -31.032755
77.133972 25.6 -0.5
77.01519 18.299999 -0.82635182
30.338079 7.6124935 -32.21188
30.821754 8.711935 -33.38002
30.782978 7.9683208 -31.668833
76.696564 84.499687 -33.391068
76.656364 9.6058302 -8.5
77.414574 84.09005 -39.984806
30.339083 7.882854 -33.054134
77 63.400002 -24.700001
53.771778 46.671494 -34.826351
30.316372 7.6902885 -32.767673
77.357216 84.766045 -22.954563
30.299999 7.5241137 -32.789314
30.692772 0.65782297 -39.717072
77.307098 84.355659 -0.37278596
75.5961 8.4598274 -1
77.508598 84.184143 -0.14875762
74.361366 18.300756 -33.978157
84.766045 40.695652 -39.642788
85 63.400002 -24.700001
30.533413 7.650125 -30.679445
30.370285 8.0845737 -33.737232
32.304317 10.971221 -34.408638
77.478622 84.933449 -31.758293
77.596687 84.905174 -0.86582565
74.497223 80.291313 -34.122597
76.345497 9.1295309 -31
77.657982 84.93969 -1
31.126352 4.3602257 -39.984806
84.366669 0.073884077 -39.088661
76.939507 10.406816 -31.086168
30.633459 0.50031328 -39.553207
76.173454 10.284865 -32.940277
30.58942 7.7113743 -30.69285
70.505348 8 -23.199167
30.91016 8.2264175 -32.274658
75.785484 82.671242 -33.519814
77.06031 32.900002 -0.65797985
84.342018 84.93969 -1
73.675316 79.289482 -34.503662
76.656364 54.804543 -32.394169
77.584312 85 -33.168243
30.360308 7.34202 -8.321784
69.974289 71.822342 -34.015194
76.601646 84.105255 -32.588287
77.024078 84.218681 -30.380636
77 50.275269 -18.04755
31.113583 9.1162424 -33.679436
67.342102 69.046547 -34.826351
31.299999 0.35721239 -39.766045
37.017784 17.482922 -34.015194
30.304764 7.7262101 -33.228806
76.587715 84.317589 -33.115765
35.064285 0.35721239 -39.766045
85 50.275269 -18.04755
77.416817 84.816681 -30.60404
36.279411 17.742693 -39.342022
32.43399 11.518573 -35
38.828571 0.35721239 -39.766045
77.06031 69.400002 -0.65797985
84.642784 22.652174 -39.766045
77 58.705322 -20.223635
75.223839 80.815689 -33.739017
31.299999 0.06030738 -0.65797985
42.592857 0.35721239 -39.766045
43.989922 30.455952 -39.342022
77.589951 84.999428 -32.844624
35.064285 0.06030738 -0.65797985
84.553207 84.666542 -39.499687
40.283142 24.009274 -39.642788
46.357143 0.35721239 -39.766045
84.5 47.913044 -39.866024
74.60006 8.0894585 -31.410706
85 58.705322 -20.223635
77.133972 43.849998 -0.5
77.01519 36.549999 -0.82635182
38.828571 0.06030738 -0.65797985
30.389702 7.8379822 -32.488323
50.121429 0.35721239 -39.766045
77.980736 10.607931 0
30.688839 8.450058 -33.070358
42.592857 0.06030738 -0.65797985
53.885715 0.35721239 -39.766045
30.309275 7.8563247 -36.501484
84.93969 84.342018 -7.909091
46.357143 0.06030738 -0.65797985
84.173645 11.826087 -39.984806
30.433975 7.5 -8.321784
77.120605 10.710834 -0.5
57.650002 0.35721239 -39.766045
30.52927 8.0356159 -32.434673
77.057373 84.21241 -0.74245065
30.621677 8.5099764 -33.511776
30.662066 7.7705145 -30.388546
50.121429 0.06030738 -0.65797985
76.594986 84.222084 -32.744946
30.575418 7.7424574 -31.241766
61.414288 0.35721239 -39.766045
84.607224 0.65782297 -39.717072
74.209717 79.404076 -34.072598
30.657213 7.7204514 -39.766045
53.885715 0.06030738 -0.65797985
30.315193 1 -0.82635182
65.178574 0.35721239 -39.766045
77 63.400002 -15.3
75.783554 82.994293 -34.006302
57.650002 0.06030738 -0.65797985
31.557154 8.8583393 -33.100784
68.942856 0.35721239 -39.766045
84.607224 84.342178 -0.28292963
84.342018 84.93969 -11.363636
61.414288 0.06030738 -0.65797985
84.666542 0.50031328 -39.553207
77 47.746815 -15.636671
72.707146 0.35721239 -39.766045
38.388142 8.1949511 -32.063816
84.866028 33.47826 -39.5
85 63.400002 -15.3
65.178574 0.06030738 -0.65797985
74.309761 7.6571088 -0.23395556
76.471428 0.35721239 -39.766045
31.032238 8.3729239 -32.508659
30.998211 8.5197229 -32.789776
30.497654 8.3258953 -33.739803
68.942856 0.06030738 -0.65797985
85 47.746815 -15.636671
31.299999 0 -1
77 78.441505 -21.53722
80.235718 0.35721239 -39.766045
45.510513 8.1949511 -32.063816
76.787537 84.259323 -32.20594
75.094681 8.346323 -31.871592
72.707146 0.06030738 -0.65797985
76.540176 11 -32.596096
84 0.35721239 -39.766045
30.742571 8.008111 -31.882851
76.471428 0.06030738 -0.65797985
52.632885 8.1949511 -32.063816
85 78.441505 -21.53722
30.483109 7.9302273 -32.305492
30.957979 0.06030738 -14.818182
80.235718 0.06030738 -0.65797985
30.350618 7.5335212 -31.811491
30.39624 7.6924124 -32.013275
84 0.06030738 -0.65797985
30.564852 7.9106917 -31.989418
59.755257 8.1949511 -32.063816
84.5 22.652174 -0.1339746
77.392197 84.97361 -32.823299
76.946724 84.612457 -32.229919
77.563049 85 -39
76.738052 84.043076 -32.242928
66.877632 8.1949511 -32.063816
75.840111 82.170509 -33.369389
75.733261 82.840538 -33.782677
84.642784 47.913044 -0.23395556
84.886894 84.299393 -0.64817065
74.717949 8.0871744 -23.5
74.292801 80.530983 -34.75692
30.302748 7.135519 -30.901987
76.399712 83.994072 -33.174938
84 85 -39
84.93969 84.342018 -18.272728
41.553238 0 -15.321281
30.977753 8.8714647 -33.432606
75.870468 11 -33.345493
74.324753 80.460152 -34.474892
77.133972 62.099998 -0.5
77.01519 54.799999 -0.82635182
84.48484 0.23643734 -0.57350343
30.304766 7.6350317 -32.860703
34.487164 14.645534 -34.5
76.577797 8.1722918 -0.015192247
75.296211 82.134247 -34.135239
77.359238 84.768768 -30.431425
76.997292 84.559761 -39.605465
52.125599 43.297695 -34.233955
30.680946 7.893507 -39.766045
76.742973 84.117325 -32.251373
84.98481 1 -0.82635182
30.421459 7.6128306 -31.562399
84.342018 84.93969 -21.727272
77.080261 84.594215 -31.676037
84.98481 84 -39.173649
76.132553 83.090103 -33.134075
76.978127 62.105297 -31.36161
74.01886 79.537857 -34.249508
77.011345 84.160294 -30.908693
77.084785 84.532021 -31.483486
77 21.858988 -16.046108
77.024452 84.666977 -32.093437
84.173645 73.173912 -0.015192247
76.924782 10.332438 -31
77.333458 84.553207 -0.50031328
75.176071 81.548996 -33.892464
32.480679 10.891175 -34.199318
71.453453 0 -18.567387
84 0 -1
85 21.858988 -16.046108
84.766045 29.869566 -0.35721239
75.859291 9.9391098 -33.101795
84.642784 37.086956 -39.766045
76.99939 84.442818 -31.694338
76.271156 83.209053 -32.962734
30.413105 0.70060992 -39.35183
37.305325 8 -19.776365
84.173645 58.739132 -0.015192247
30.957979 0.06030738 -25.181818
68.239433 0 -24.602182
84.095024 0.72716594 -0.04264354
31.069065 8.7088861 -33.053699
84.342018 0.06030738 -14.818182
30.394829 0.86582565 -0.59668726
30.315193 7 -0.82635182
32.572632 11.296016 -39.642788
40.751057 23.963108 -34.060307
76.245529 9.0106316 -23.5
69.555412 8 -16.124262
76.785645 84.621262 -39.098347
77.164742 84.914726 -39.067951
30.799999 0.1339746 -35.545456
75.96804 83.00634 -33.367073
40.134666 24.099323 -39.342022
30.315193 0.82635182 -35.545456
70.78878 0 -22.8494
36.427887 17.652645 -39.642788
77.357216 84.766045 -8.3181877
77.392944 84.985428 -33.545124
50.309071 40.027214 -34.133976
84.866028 65.95652 -0.5
30.81558 7.8111043 -0.6722095
76.805046 9.9361849 -16
84.93969 84.342018 -28.636364
30.315193 7.1736484 -4.660892
30.799999 7.8660254 -4.660892
77.477165 84.8778 -31.086878
73.725639 79.252121 -34.402573
74 9.1295309 -33.345493
77 20.847977 -23.077845
76.282661 83.582787 -33.040295
40.675858 8 -24.509617
50.588112 39.857975 -34.015194
74.348297 79.312637 -33.999985
84.866028 51.52174 -0.5
76.316032 8.8886547 -0.5
76.912003 84.450256 -32.023216
85 20.847977 -23.077845
30.517361 7.7690067 -31.675671
75.989365 62.105297 -33.245533
84.342018 84.93969 -32.090908
39.846336 0 -24.177526
54.321384 46.338161 -34.060307
77.833336 85 -31.617949
77.006096 84.115166 -30.70719
76.5821 9.5348587 -31.431417
77.160789 84.67804 -31.587244
77.133972 80.349998 -0.5
77.01519 73.050003 -0.82635182
30.425867 7.9372096 -32.567608
63.879395 62.402267 -34.133976
76.823044 84.326591 -32.158794
75.227158 10.766871 -33.727589
30.627554 7.9937563 -32.06815
75.733185 82.865685 -33.830612
84.905174 84.134171 -0.59668726
74.948936 10.848803 -33.841946
77.32354 84.954178 -32.778484
84.080841 84.983528 -0.83834374
76.79319 10.167645 -31.710833
31.299999 0.06030738 -39.342022
64.158432 62.233028 -34.015194
84.886894 0.70060992 -39.35183
84.5 37.086956 -0.1339746
30.786446 8.4902916 -32.960167
35.064285 0.06030738 -39.342022
84.342018 0.06030738 -25.181818
74.554825 8.6014729 -32.71442
75.842514 8.0242405 -0.1339746
74.957817 7.6336102 -0.1339746
30.302794 7.7595239 -33.525482
76.770103 84.391235 -32.401131
30.530922 8.3459978 -33.407684
32.42416 11.386065 -39.342022
38.828571 0.06030738 -39.342022
77.375496 84.95018 -32.440495
61.993561 58.663532 -39.984806
42.592857 0.06030738 -39.342022
77.671501 84.97242 -31.341118
84.766045 69.565216 -39.642788
84.5 0.1339746 -35.545456
46.357143 0.06030738 -39.342022
84.98481 0.82635182 -35.545456
30.30057 7.63873 -33.132801
77 77.24337 -16.59845
76.582382 84.311424 -33.1898
31.138344 0.016469909 -39.080845
76.846169 84.69664 -33.401417
84.93969 84.342018 -39
84.173645 26.26087 -39.984806
69.704071 71.376793 -39.984806
50.121429 0.06030738 -39.342022
74.537346 79.30648 -33.951485
30.588526 8.4333086 -33.396793
75.683403 82.19313 -33.511299
77.292862 84.707352 -30.355232
53.885715 0.06030738 -39.342022
85 77.24337 -16.59845
84.766045 55.130436 -39.642788
30.637045 8.0985537 -32.324574
57.650002 0.06030738 -39.342022
77.5 25.6 -0.1339746
77.280235 84.888222 -32.180553
61.414288 0.06030738 -39.342022
84.342018 4.6086955 -39.939693
76.782127 84.621956 -33.333363
76.71994 83.937126 -32.268379
75.704193 25.601515 -33.468952
84.666542 84.499687 -0.44679356
30.314835 7.8614655 -33.484158
65.178574 0.06030738 -39.342022
76.291878 83.547653 -33.002884
76.319267 9.9624481 -32.595142
68.942856 0.06030738 -39.342022
71.65786 0 -19.443195
84.327789 0.51557994 -0.18889548
72.707146 0.06030738 -39.342022
84.766045 44.304348 -0.35721239
77.675926 84.999855 -32.409264
77.046608 84.856384 -33.456703
76.471428 0.06030738 -39.342022
77.068756 84.463448 -31.383242
77.5 84.866028 -11.977282
30.301165 7.4402423 -32.29174
77.826355 84.98481 -26.613657
75.686287 10.307306 -33.382565
80.235718 0.06030738 -39.342022
84.5 76.782608 -39.866024
84 0.06030738 -39.342022
38.171494 8 -17.273731
30.315674 7.2582278 -31.07958
30.51873 8.3576756 -33.622463
77.826355 14.65 -0.015192247
31.637812 9.0964394 -33.325279
77.490189 84.996567 -33.269512
74 8.1683502 -31.990837
32.810013 10.407643 -33.940937
75.302193 82.197014 -34.30526
30.360308 7.34202 -19.304459
74.261292 79.852028 -34.165874
77 21.494654 -23.69445
48.057487 37.020588 -34.5
74.360619 40.20303 -33.978245
30.487963 8.1403122 -32.884197
84.5 62.347828 -39.866024
30.360308 7.34202 -26.626244
31.126352 7.984808 -11.982676
74.277435 79.358932 -34.03257
76.245529 62.105297 -32.989368
30.374979 8.1001759 -33.882072
85 21.494654 -23.69445
84.161659 0.016469909 -39.080845
84.397057 84.764999 -0.49292907
76.52813 84.050423 -32.741913
76.718437 83.874527 -32.266979
84.554489 0.92576528 -0.17112668
32.396347 11.372564 -34.706623
32.573879 11.276743 -34.34251
84.98481 15.434783 -0.82635182
31.236464 7.9981823 -30.541452
77.616463 84.97654 -31.746613
76.938683 84.704437 -32.604851
75.415016 10.351875 -33.564693
77.220161 10.701609 -0.35721239
61.627811 59.395641 -34.5
71.487732 74.642418 -39.939693
30.300137 7.7367048 -33.963707
84.866028 47.913044 -39.5
77.5 43.849998 -0.1339746
75.704193 54.804543 -33.468952
30.433975 7.5 -19.304459
30.792341 7.7293363 -39.861511
76.279358 83.81179 -33.485073
77.724518 84.986504 -31.398539
30.433975 7.5 -26.626244
77.197624 84.672798 -31.36828
77.032845 84.84729 -39.031372
77.01519 84.173645 -11.977282
76.925888 10.610649 -31.536278
30.419655 7.574873 -31.395136
30.336924 7.9896784 -34.002964
84.750595 0.72594947 -0.3987453
75.385956 81.172089 -33.660664
46.57254 33.237015 -39.984806
75.297005 82.177681 -34.247696
84.642784 76.782608 -0.23395556
73.158188 77.9767 -39.766045
74.169563 8.0239019 -31.337772
84.692902 84.355659 -39.627213
77.048943 84.309517 -30.377758
84.173645 40.695652 -39.984806
75.145966 80.971367 -33.78767
84.866028 84.5 -7.909091
58.138306 52.306904 -39.984806
76.57885 83.976204 -32.574135
84.93969 11.826087 -0.65797985
69.166306 8 -15.897835
84.642784 62.347828 -0.23395556
31.343246 9.3992348 -33.815804
76.530235 84.222862 -33.122501
65.848816 65.020164 -39.984806
30.382143 7.3971853 -30.359245
76.805916 84.508766 -32.514664
77.661858 84.960403 -31.120419
77.357216 84.766045 -4.6590939
77.621422 84.966248 -31.509632
30.808826 8.1183615 -32.10463
30.489231 8.3120098 -33.75388
38.388142 9.0106316 -33.245533
75.530724 8.5565195 -31.828432
73.559319 77.733421 -39.984806
30.365482 8.0754242 -33.827885
76.110641 82.765266 -33.131943
30.528862 0.40210414 -0.78121704
31.268759 8.0415487 -31.497585
45.510513 9.0106316 -33.245533
30.385838 7.4822454 -31.218805
77.49659 84.975746 -32.324959
84.642784 65.95652 -39.766045
76.892731 84.588211 -32.374493
75.344238 81.381714 -33.696381
52.632885 9.0106316 -33.245533
84.342018 4.6086955 -0.06030738
76.978958 10.734587 -31.235334
30.957979 0.06030738 -1
30.636137 7.8755331 -31.660866
77.563049 84 -40
74.595444 9.1557369 -33.290009
30.620071 8.4814978 -33.40416
77.227798 84.942131 -36.272564
59.755257 9.0106316 -33.245533
76.973137 84.65136 -32.242928
84.642784 51.52174 -39.766045
73.467491 78.932205 -34.507801
30.957979 7.9396925 -15.643567
31.183002 9.3564539 -34.018463
84 84 -40
77.5 62.099998 -0.1339746
66.877632 9.0106316 -33.245533
76.958908 84.453094 -31.866114
76.490257 84.096115 -32.932755
74.087822 79.997482 -34.459869
77.955215 85 -30.847496
76.903603 84.744957 -33.213734
30.360308 0.65797985 -4.4545455
84.764999 0.49292907 -0.60294688
30.312548 7.8567796 -33.558319
30.899817 8.0233011 -31.698408
84.866028 84.5 -18.272728
77.519806 84.998856 -33.363274
84.866028 80.391304 -0.5
31.477503 9.9342432 -34.581345
65.695923 65.672752 -34.233955
30.743111 8.1114168 -32.173168
30.657213 7.7660446 -1
42.178646 27.469481 -34.657978
30.310865 7.1400967 -0.95545208
77.001335 84.146751 -31.212061
76.801994 84.552444 -32.674828
77.153389 84.912285 -33.454208
76.889359 84.63485 -32.546143
30.652077 8.5579395 -33.526684
76.939499 84.752235 -32.914669
77 50.567513 -21.108067
84.342018 19.043478 -39.939693
31.913103 9.9527512 -33.937557
77.826355 51.150002 -0.015192247
77.398743 84.274048 -0.2494075
30.433975 0.5 -4.4545455
77.463737 84.895607 -31.407263
77.710304 84.841759 -0.54445994
74.717949 25.601515 -33.912827
77.002792 84.083549 -30.925205
84.071198 84.203835 -0.023586733
85 50.567513 -21.108067
74.853592 8.1974573 -31.645857
77.919159 84.161659 -0.016469909
30.376846 8.0947523 -33.647594
76.727585 10.766871 -32.227158
30.347023 7.4807711 -31.642031
30.43642 8.2234926 -33.805103
84.5 65.95652 -0.1339746
30.315193 7.1736484 -22.965351
30.957979 0.06030738 -11.363636
30.799999 7.8660254 -22.965351
77.158241 84.289696 -0.54445994
76.814713 84.19873 -32.097481
76.874313 84.664452 -39.290081
75.342987 80.999046 -39.939693
84.342018 0.06030738 -1
30.299999 7.0120263 -30.528587
76.978127 32.902271 -31.36161
31.097412 8.0296192 -31.506498
76.83165 10.009163 -1
37.558495 0 -18.46278
77.295998 84.759148 -31.240339
30.817533 7.876287 -30.398947
76.737633 84.497177 -32.825298
84.5 51.52174 -0.1339746
77.826355 84.98481 -22.954563
77.233955 84.642784 -26.613657
76.24913 83.246277 -32.995831
30.312052 7.341485 -31.569414
30.536438 7.4264965 -0.51515698
84.93969 84.342018 -14.818182
74 10.009163 -33.83165
77 48.153664 -15.822474
84.866028 84.5 -28.636364
84.93969 0.65797985 -4.4545455
84.766045 84 -39.642788
77.5 80.349998 -0.1339746
54.283051 45.950275 -39.984806
77.013443 84.333328 -39.766045
30.360308 4.3602257 -39.342022
76.50869 83.834381 -32.67136
76.749565 9.2975416 -0.35721239
85 48.153664 -15.822474
73.345009 78.522415 -34.357212
77.419189 84.842148 -31.090216
67.891708 68.713219 -34.060307
77.343613 84.93174 -32.337875
77.248093 84.816948 -31.838091
77.826355 32.900002 -0.015192247
40.388504 24.182995 -34.357212
84.98481 29.869566 -0.82635182
77 49.552025 -23.077845
31.080795 7.9759188 -30.411196
84.766045 73.173912 -0.35721239
84.811104 84.484421 -39.327789
76.98114 10.664106 -31
76.78257 84.194916 -32.182205
30.723236 8.6379318 -33.470673
76.729576 84.521461 -33.012478
84.866028 0.5 -4.4545455
85 49.552025 -23.077845
75.768562 82.70652 -33.567604
77.657982 21.950001 -0.06030738
74.667564 11 -33.924786
74.717949 54.804543 -33.912827
84.766045 58.739132 -0.35721239
30.957979 0.06030738 -21.727272
76.742638 84.460167 -32.663246
77.826355 69.400002 -0.015192247
30.299999 7.0347233 -30.711329
30.792929 0.23499809 -0.60294688
75.989365 32.902271 -33.245533
84.342018 0.06030738 -11.363636
30.737314 0.17546932 -39.059437
84.366669 84.926117 -0.91133815
84.722145 0.85875118 -0.32283485
31.108824 9.3084555 -34.153103
76.204422 8.0808687 -0.06030738
77.675011 84.952301 -30.768923
75.048088 81.054039 -33.871033
77.158577 84.826141 -32.246086
30.731131 8.138731 -32.259823
39.458988 8 -23.953892
30.902946 7.507071 -0.23499809
30.522425 8.2896233 -33.226749
76.619301 84.372292 -33.2108
30.995501 8.2358446 -32.241344
84.93969 84.342018 -25.181818
77.888084 84.997185 -30.814138
84.93969 11.826087 -39.342022
30.345848 7.986886 -33.421253
77.173981 84.618874 -31.250099
84.866028 84.5 -39
84.93969 26.26087 -0.65797985
75.496437 7.9947467 -0.23395556
75.441498 8.1050816 -0.35721239
77.638512 84.935127 -30.574696
77.445663 84.871338 -31.243423
84.342018 33.47826 -39.939693
34.385597 14.70713 -34.826351
84.866028 76.782608 -39.5
76.630684 84.39106 -33.222179
76.792496 84.62085 -33.140141
76.83522 84.554115 -32.517925
76.838264 10.504611 -31.835978
32.739422 11.333332 -34.233955
30.311291 7.5201426 -32.271019
31.14344 9.3344154 -34.085114
30.770288 7.9083467 -31.412224
37.432487 8 -18.891933
30.299999 7.4448853 -32.473972
84.866028 62.347828 -39.5
84.342018 19.043478 -0.06030738
77.179993 84.575623 -30.550352
76.687286 84.484398 -33.345142
75.063812 62.105297 -33.80505
63.777222 61.929161 -39.939693
30.333134 7.9685502 -33.66383
73.573166 78.862106 -34.329708
30.957979 0.06030738 -32.090908
77.998535 85 -30.355295
84.342018 0.06030738 -21.727272
76.98114 11 -31.335894
77.213814 84.876587 -32.361023
77.575348 84.906914 -30.488482
84.98481 8.217391 -39.173649
31.240562 7.5626869 -0.17546932
84.562683 0.17546932 -39.059437
73.144966 78.643738 -35
31.85116 9.6350861 -33.722713
77.657982 40.200001 -0.06030738
77.06031 84.342018 -15.636375
84.173645 69.565216 -39.984806
77.440407 10.356876 -0.1339746
74.55603 80.950974 -34.60181
46.309746 33.708385 -34.233955
30.482546 7.5840421 -30.665211
32.549229 10.856887 -34.142662
77.35112 84.967651 -32.922523
30.325792 7.6500998 -32.485348
38.862034 20.523758 -39.984806
42.717289 26.880388 -39.984806
30.528862 0.40210414 -39.218784
77.656395 84.988655 -31.848415
30.531204 7.8801146 -32.001511
84.173645 55.130436 -39.984806
84.274048 84.601257 -39.750591
77.497963 84.866669 -30.498241
50.427795 39.593647 -39.984806
84.98481 44.304348 -0.82635182
77.218956 84.837059 -32.07037
31.137722 8.1646643 -32.000076
76.462662 83.996803 -32.884567
67.894882 0 -15.454689
77 60.156628 -16.59845
76.733231 84.329384 -32.431561
76.245529 32.902271 -32.989368
30.516901 8.097415 -39.494625
77 48.905346 -23.69445
76.694626 84.482811 -33.095818
85 60.156628 -16.59845
76.121323 11 -33.121319
30.476376 7.5685935 -30.462744
69.921066 0 -16.386879
76.468948 69.406059 -32.704193
85 48.905346 -23.69445
77.673019 84.945526 -30.39785
77.028114 84.314796 -31.294334
84.642784 80.391304 -39.766045
44.493214 30.437904 -34.133976
77.335342 84.944443 -32.545189
77.233955 14.65 -0.35721239
84.342018 0.06030738 -32.090908
78 85 -1
77.826355 84.98481 -8.3181877
77.713348 84.193169 -0.061641078
84 85 -1
30.775124 8.7470608 -33.640324
31.198124 8.0923929 -31.746069
77 50.275269 -21.95245
77.557854 84.929855 -31.270288
53.958828 46.558048 -34.357212
84.93969 40.695652 -0.65797985
31.225765 7.8288732 -0.44551083
76.864777 84.545029 -32.369083
30.818462 7.8550649 -39.866024
77.17495 84.884041 -32.610233
77.054848 84.36129 -31.155018
77.657982 58.450001 -0.06030738
30.657139 0.82569408 -0.25411296
58.063541 52.812958 -34.133976
85 50.275269 -21.95245
84.750595 0.3987453 -0.72594947
77.233955 84.642784 -22.954563
84.771141 0.40210414 -39.218784
30.698746 0.2494075 -39.274052
84.717072 84.607224 -39.342178
77.797096 84.981308 -30.574623
31.0306 8.0751076 -31.763826
30.452295 7.6236835 -31.390993
76.442177 9.1557531 -0.65797985
30.34976 8.0263929 -33.694889
74.379707 80.397797 -34.315735
77 19.705324 -19.776365
75.016197 8.7808781 -32.744373
41.553238 0 -24.678719
76.808762 84.645752 -33.198929
74.94165 80.547737 -33.864494
84.824532 0.43731329 -0.94056249
31.249813 8.9087696 -33.234158
85 19.705324 -19.776365
30.533955 7.6427875 -11.982676
84.342018 33.47826 -0.06030738
77.289406 84.709251 -30.626879
77.128845 84.492416 -30.464315
41.110519 8 -15.384935
74 9.698349 -33.702908
76.468948 40.20303 -32.704193
52.21146 42.859272 -39.939693
71.633865 75.188011 -34.133976
76.877853 84.665764 -32.753716
77.644341 84.692902 -0.37278596
84.342178 0.3927727 -0.28292963
77.357216 18.299999 -0.23395556
75.120956 81.620163 -34.005821
84.218781 84.771141 -39.597897
84.607224 84.717072 -39.342178
38.75663 0 -16.59845
84.5 80.391304 -0.1339746
59.921967 55.572533 -39.939693
65.155243 65.440804 -39.173649
73.806999 79.72908 -34.864792
67.632477 68.285789 -39.939693
30.303747 7.0957279 -30.521954
74 10.332438 -33.924786
76.879028 84.336159 -31.999184
30.66935 8.1599817 -32.414917
72.865753 78.154068 -39.173649
76.111343 8.6839647 -0.5
30.43494 7.8042278 -39.494625
77.087975 84.411575 -30.471851
47.955925 37.082184 -34.826351
55.74897 49.844536 -34.657978
31.151525 7.8105001 -39.984806
84.93969 26.26087 -39.342022
77.005257 9.503562 -0.23395556
77.023666 84.813469 -32.839466
35.006779 14.16713 -39.984806
30.799999 1 -39.866024
77.642372 10.662484 -0.06030738
76.854202 84.631058 -32.719013
30.760349 8.2391596 -32.456818
75.535362 81.776611 -33.590923
84.926117 0.91133815 -0.63332796
75.704193 8.5310488 -23.5
30.299999 7.1321363 -31.218199
30.623953 7.7858982 -31.24939
84.601257 0.2494075 -39.274052
76.943466 84.543549 -32.075996
75.735924 82.814201 -33.735462
76.79306 8.8907785 -0.1339746
73.848457 78.686974 -34.087215
32.357677 10.948593 -34.332943
73.624046 79.433655 -34.971207
69.30294 71.620071 -39.766045
77.657982 76.699997 -0.06030738
77.316154 84.893524 -32.076588
30.47382 7.98353 -32.486279
30.336924 7.9896784 -39
61.526249 59.457237 -34.826351
75.524651 82.554482 -34.095699
30.972752 8.1302547 -31.984356
30.460255 8.2625036 -33.713764
77.254112 84.64286 -0.82569408
75.940277 10.284865 -33.173454
34.935204 14.373798 -34.060307
75.202408 82.036087 -34.430298
77.06031 84.342018 -1
30.799999 0.1339746 -7.909091
84.98481 22.652174 -39.173649
30.315193 0.82635182 -7.909091
76.610687 83.773628 -32.478741
74.065277 80.020645 -34.529137
84.745888 84.64286 -39.174305
30.8333 7.8965564 -30.959988
77.291336 84.708511 -30.530991
30.633051 7.7773867 -31.092274
32.416645 10.921827 -34.262959
84.93969 84.342018 -1
77.357216 36.549999 -0.23395556
84.866028 84.5 -14.818182
75.078697 81.692947 -34.14743
84.342018 84.93969 -4.4545455
84.5 1 -39.866024
77.657982 84.93969 -30.272751
30.315193 7.7204514 -39.173649
30.948172 0.70060992 -39.886894
37.92968 8 -22.35
30.657213 1 -0.23395556
77.233955 51.150002 -0.35721239
30.805767 7.9517102 -31.549646
77.065933 84.817596 -32.611176
77 47.324142 -15.490383
30.723446 8.6894417 -33.704212
30.533955 0.35721239 -35.545456
84.342018 47.913044 -39.939693
77.054596 84.327408 -30.479094
84.299652 84.864777 -0.59703928
84.642067 0.40417337 -0.51756597
74.710831 10.167645 -33.79319
85 47.324142 -15.490383
30.382435 8.1180382 -36.501484
76.464363 8.2967205 -0.06030738
77.067802 84.639343 -31.849434
77.695518 9.4692659 0
84.595825 84.642067 -0.51756597
76.12706 9.0851851 -31.899496
77.06031 11 -0.65797985
48.356205 36.502644 -39.939693
30.592117 8.4631414 -33.504337
75.870468 8.6545057 -31
30.799999 0.1339746 -18.272728
31.299999 0.82635182 -39.984806
30.315193 0.82635182 -18.272728
30.548309 7.9591837 -32.17355
77 58.747841 -19.33112
84.5 0.1339746 -7.909091
56.066715 49.215904 -39.939693
35.064285 0.82635182 -39.984806
84.98481 0.82635182 -7.909091
37.92968 8 -17.65
84.93969 84.342018 -11.363636
84.828873 84.554489 -0.92576528
38.828571 0.82635182 -39.984806
30.40859 8.1729174 -33.853951
77.815857 84.491402 -0.14875762
84.93969 40.695652 -39.342022
84.173645 84 -39.984806
84.866028 84.5 -25.181818
84.173645 11.826087 -0.015192247
85 58.747841 -19.33112
42.592857 0.82635182 -39.984806
77.680283 9.9528694 -0.015192247
77.826355 84.98481 -4.6590939
77.233955 84.642784 -8.3181877
84.905174 84.403313 -39.134174
76.805046 25.601515 -32.063816
30.299999 7.1999588 -31.514551
46.357143 0.82635182 -39.984806
84.98481 73.173912 -0.82635182
30.524 7.905293 -32.0975
77.229477 84.637741 -30.360291
30.39348 7.5679569 -31.579344
50.121429 0.82635182 -39.984806
77.233955 32.900002 -0.35721239
30.727957 8.0262394 -39.761093
30.79336 8.1462393 -32.194923
76.721008 84.510696 -39.173649
53.885715 0.82635182 -39.984806
77.357216 54.799999 -0.23395556
76.601929 9.3889561 -0.65797985
30.895035 8.2621307 -32.366356
57.650002 0.82635182 -39.984806
77.146179 84.63105 -31.480074
84.35183 0.70060992 -39.886894
84.642784 1 -0.23395556
30.950218 7.9503174 -31.143749
84.98481 58.739132 -0.82635182
61.414288 0.82635182 -39.984806
30.459665 8.2396898 -33.48864
30.307463 7.6359024 -32.77803
75.835136 82.58857 -33.419445
65.447685 65.263443 -39.766045
65.178574 0.82635182 -39.984806
84.766045 0.35721239 -35.545456
74.256195 9.9557257 -33.80069
84.866028 4.6086955 -0.5
68.942856 0.82635182 -39.984806
77.233955 69.400002 -0.35721239
77.565804 84.999649 -33.087318
72.707146 0.82635182 -39.984806
76.471428 0.82635182 -39.984806
77.563049 84.866028 -39.5
73.970634 79.573944 -34.316685
84.98481 37.086956 -39.173649
42.241634 27.431278 -34.5
80.781525 84.866028 -39.5
80.235718 0.82635182 -39.984806
59.88007 56.083439 -34.233955
77.454178 84.993546 -33.344193
30.799999 0.1339746 -28.636364
77.179367 84.363098 -39.849087
30.315193 0.82635182 -28.636364
30.698746 0.2494075 -0.72594947
84 84.866028 -39.5
76.855385 84.677925 -33.000515
84 0.82635182 -39.984806
77.133972 84.5 -15.636375
84.5 0.1339746 -18.272728
30.657213 7 -0.23395556
84.93969 69.565216 -0.65797985
77.194611 84.718231 -31.59383
73.384941 79.039406 -34.992794
77 84.007309 -31
84.98481 0.82635182 -18.272728
77 84.006859 -30.951269
31.081217 7.7711387 -0.40210414
84.93969 84.342018 -21.727272
31.063292 8.0508451 -31.640509
76.980049 84.449715 -31.782507
77.06031 29.25 -0.65797985
70.259918 0 -16.683273
74.17791 8.2571554 -32.202145
75.063812 32.902271 -33.80505
30.873785 7.9068751 -30.628044
30.419195 8.0140486 -32.826916
84.93969 55.130436 -0.65797985
31.299999 7.7660446 -0.35721239
77 78.694679 -20.223635
34.858334 7.7660446 -0.35721239
84.274048 84.750595 -0.3987453
44.772259 30.268667 -34.015194
76.835342 84.498253 -32.371029
76.805046 54.804543 -32.063816
38.416668 7.7660446 -0.35721239
85 78.694679 -20.223635
41.974998 7.7660446 -0.35721239
30.995369 8.0286331 -31.604973
48.505527 36.748852 -34.060307
45.533333 7.7660446 -0.35721239
77.413574 84.887779 -39.435326
49.091667 7.7660446 -0.35721239
84.766045 8.217391 -39.642788
77.357216 73.050003 -0.23395556
52.650002 7.7660446 -0.35721239
30.471127 7.074235 -0.44551083
75.954857 83.041328 -33.41188
56.208332 7.7660446 -0.35721239
36.790443 17.432756 -39.939693
84.342018 47.913044 -0.06030738
30.373476 7.6175289 -31.918146
59.766666 7.7660446 -0.35721239
30.339148 7.9975824 -33.955544
41.110519 8 -24.615065
40.645699 23.789387 -39.939693
32.218899 9.8395624 -33.77306
30.611055 8.2784176 -32.843586
63.325001 7.7660446 -0.35721239
30.532864 7.678647 -31.069836
44.50095 30.146015 -39.939693
30.799999 0.1339746 -39
30.315193 0.82635182 -39
66.883331 7.7660446 -0.35721239
67.529152 68.933105 -34.357212
49.734226 40.01429 -39.173649
84.5 0.1339746 -28.636364
62.075855 59.123905 -34.060307
77.64817 84.886894 -0.70060992
